ply
format ascii 1.0
element vertex 682
property float x
property float y
property float z
property uchar red
property uchar green
property uchar blue
property float nx
property float ny
property float nz
end_header
0.0238191 -0.0232653 0.213004 146 105 84 0.86506 -0.576905 -0.11237
0.0242092 -0.0208667 0.212468 155 116 122 0.916921 -0.391681 -0.0785669
0.0439136 -0.0238283 0.213187 112 115 109 0.859848 -0.51097 -0.00926976
0.0462596 -0.0214535 0.212648 116 121 125 0.907721 -0.562703 0.204956
-0.0402652 -0.016529 0.212395 134 140 140 0.953267 0.300258 0.0592787
-0.0390485 -0.0180587 0.213611 130 136 131 0.864177 -0.508502 0.0450106
-0.0337274 -0.0165787 0.212758 109 115 103 0.972082 -0.400418 -0.0726847
-0.0172042 -0.0154251 0.211439 148 107 153 0.650258 -0.752599 0.185638
-0.0124068 -0.0185629 0.21306 110 106 110 0.921042 0.368381 0.160187
-0.00761937 -0.0178066 0.212032 115 110 113 -0.0166058 -0.446298 0.897399
-0.00298737 -0.0164169 0.212781 128 114 112 0.658358 -0.724291 -0.212239
0.00283391 -0.0151426 0.212147 136 140 146 -0.0852296 -1.0024 -0.0195353
0.00777519 -0.0179755 0.212691 128 131 131 0.05358 -1.00038 0.0808895
0.0118557 -0.0173508 0.21296 141 146 151 0.333024 -0.73569 -0.597704
0.0179731 -0.0170584 0.21447 135 134 135 -0.084117 0.153483 0.984647
0.0240477 -0.0159087 0.212671 130 112 101 0.787115 0.602876 0.163242
0.0271033 -0.0162752 0.213456 135 113 101 -0.392845 0.626999 0.674564
0.0325062 -0.0151928 0.213193 84 55 42 -0.0555945 -0.934867 -0.36969
0.0362955 -0.0174755 0.213204 95 86 74 0.882531 0.351117 0.330046
0.0447612 -0.0175538 0.213705 111 111 106 0.937117 1.34678 0.330039
0.0450116 -0.0158528 0.210183 96 99 99 0.83078 0.272769 0.565926
-0.0419939 -0.01111 0.213027 149 155 161 0.82163 0.536478 0.270941
-0.0420488 -0.0115826 0.212527 140 145 152 0.940242 0.346272 -0.0193575
-0.0400726 -0.0112589 0.213087 75 51 56 0.698152 -0.556618 -0.457013
-0.0337947 -0.0143374 0.212221 140 148 156 0.836529 0.541352 -0.165399
-0.0166311 -0.0130818 0.2116 147 82 98 0.68161 -0.89587 0.127883
-0.0122645 -0.0100788 0.213533 155 130 138 0.379317 -0.880103 -0.327131
-0.0067241 -0.0112289 0.212916 155 126 131 -0.540122 -0.821503 0.185892
-0.00326145 -0.0136174 0.21252 148 142 147 0.706307 0.668541 -0.234598
0.0014139 -0.0154407 0.212306 145 140 142 -0.377634 -0.92191 -0.090038
0.00860703 -0.0171674 0.213936 112 102 110 0.187941 -0.903862 0.392166
0.0134317 -0.0144356 0.214001 116 112 121 0.0199216 -0.687482 0.738286
0.0178415 -0.0132085 0.213315 135 140 137 0.0767252 -0.794701 -0.602787
0.0216467 -0.0114069 0.212711 118 124 131 0.757025 -0.618278 -0.217148
0.0226897 -0.0116483 0.213175 135 136 129 1.01266 -0.0458198 -0.211256
0.0328403 -0.0149558 0.21171 111 105 94 0.18639 -0.929775 -0.380841
0.0360046 -0.0143464 0.213269 79 62 40 0.569281 -0.680103 -0.688454
-0.0431754 -0.00692254 0.211242 138 143 148 0.982968 0.166247 -0.0833425
-0.0412226 -0.00798841 0.213519 91 68 73 0.110142 0.136455 0.985478
-0.0391898 -0.0108209 0.211406 72 79 71 0.195985 -0.979355 0.0719935
-0.0352578 -0.0103724 0.214623 78 81 78 -0.388953 -0.781076 0.489631
-0.026564 -0.00597462 0.211185 145 96 91 -0.855316 -0.564057 -0.550966
-0.0232459 -0.00389308 0.21233 115 84 86 0.575342 -0.821681 -0.0384233
-0.0104411 -0.00611328 0.212451 142 134 140 0.905236 0.420555 -0.0618914
-0.00765912 -0.00875857 0.212398 124 101 104 -0.345938 -0.924846 -0.158141
-0.00460353 -0.0112266 0.213036 124 76 80 -0.542548 -0.841914 0.0433037
0.0149244 -0.0097011 0.213466 111 79 76 0.612906 -0.479667 0.632646
0.0185934 -0.00997672 0.214755 117 106 116 -0.237526 -0.662762 0.715087
0.0242308 -0.00904102 0.211384 112 116 114 0.698147 -0.698411 -0.199089
0.0257895 -0.00559695 0.212831 112 114 111 0.830888 -0.491356 -0.261919
0.0387919 -0.00853221 0.210971 135 104 86 1.42153 -0.646738 -1.58965
-0.0446197 -0.00151718 0.213883 138 143 140 0.8615 -0.0687344 0.548657
-0.0428322 -0.00168499 0.21099 84 48 46 0.958526 -0.13578 0.263879
-0.0414473 -7.68872e-05 0.209871 154 160 163 0.891548 -0.401884 0.272118
-0.0258245 -0.00067344 0.212731 127 90 85 0.892897 0.407036 0.258886
-0.0217269 -0.00051105 0.212989 110 82 77 0.588881 -0.790269 -0.213438
-0.0190324 0.00110557 0.213483 158 95 112 0.4143 -0.898561 -0.148862
-0.0125972 -0.0018007 0.212779 154 127 125 0.76967 0.506308 0.39252
-0.010886 -0.00576886 0.213894 136 85 85 0.701316 0.676167 -0.231921
0.0161506 -0.00680811 0.213061 153 120 113 0.757148 -0.244885 -2.83843
0.0183903 -0.00257346 0.21327 128 92 108 0.824664 -0.585092 -0.867448
0.0240781 -0.00232848 0.214105 123 126 123 -0.518936 -0.814692 -0.259858
0.0267985 -0.00337466 0.213031 110 113 109 0.912785 -0.0940436 -0.408969
0.0307096 -0.000524609 0.214663 111 113 107 0.366109 -0.817986 -0.446619
0.039631 -0.00108383 0.211874 157 106 95 0.961987 0.316626 0.181811
0.0409273 -0.00143485 0.213081 145 127 95 0.83621 -1.15665 -0.146168
-0.0482147 0.00231689 0.2165 145 147 147 0.765697 0.296308 0.585708
-0.0444425 0.00285909 0.212681 135 140 138 0.870307 0.152719 0.468444
-0.0418882 0.00379118 0.212781 79 49 44 0.93927 -0.329349 0.113266
-0.0412659 0.0020364 0.213149 120 111 108 0.962928 -0.184422 -0.200921
-0.0250651 -4.34546e-05 0.213113 126 95 105 0.465767 -0.886784 0.123186
-0.020194 0.00345504 0.21439 131 116 130 0.868669 -0.432305 0.277176
-0.0181885 0.0031113 0.213097 137 126 126 0.816609 0.54056 0.207711
-0.0158319 0.00129432 0.213177 164 115 117 0.887397 0.457307 0.108023
0.0205809 0.0018497 0.21303 135 96 103 0.967273 0.25565 -0.038349
0.022434 0.00119969 0.211775 116 117 118 0.689155 0.565046 0.454106
0.0295507 0.00228621 0.211986 103 106 98 0.975726 -0.0363782 -0.22429
0.0330333 0.00303683 0.212283 141 118 121 -0.203166 -0.828441 0.525806
0.0368953 0.00212068 0.213483 164 138 129 0.89563 0.456451 -0.175756
-0.0440287 0.0062359 0.213383 133 136 148 0.902659 -0.114086 0.426296
-0.041271 0.00807527 0.212627 85 51 48 0.789548 0.0145996 -0.613645
-0.0399108 0.00816641 0.212094 87 71 60 0.972897 -0.209354 0.102029
-0.0190424 0.00780349 0.212534 122 112 110 0.999769 -0.000112511 0.0333991
-0.0190016 0.00788512 0.211829 122 106 111 0.967259 0.222646 0.12668
-0.0156213 0.00866608 0.210895 142 91 90 0.666808 -0.352831 0.663387
0.0218555 0.0064616 0.212296 142 104 103 0.998218 0.00342504 -0.0713546
0.0245235 0.00763841 0.211601 112 107 114 -0.596473 -0.135848 0.791539
0.0289633 0.00956711 0.211848 153 137 136 -0.561179 -0.697708 0.446033
0.0306442 0.00651035 0.21281 138 116 109 0.837221 0.217984 -0.501606
0.0382295 0.00733542 0.213242 142 107 122 0.813641 -0.21873 0.544576
0.0398472 0.0100063 0.211805 138 126 112 0.778005 -0.542034 -0.34828
-0.0430283 0.0117397 0.213305 135 142 139 0.948787 0.00585256 0.34649
-0.0406572 0.012776 0.212547 98 60 63 0.974397 0.152987 0.165547
-0.0394254 0.0124385 0.212526 86 47 43 0.989686 -0.141979 -0.0194256
-0.0191736 0.0103192 0.211419 135 130 140 0.868752 -0.501912 -0.176101
-0.0168376 0.0109859 0.212592 111 79 75 0.686024 -0.654831 0.334915
-0.0141331 0.0147107 0.212092 115 60 48 0.69449 -0.725583 -0.0850763
-0.012072 0.0152065 0.21364 130 83 83 0.80362 -0.557289 -0.223192
0.0207431 0.0124517 0.213834 142 129 134 0.909558 -0.168221 0.383188
0.0221531 0.0125556 0.213149 127 125 132 -0.363566 -0.746202 0.561119
0.0280525 0.0132996 0.213002 167 129 139 -0.431165 -0.685869 -0.58858
0.0323396 0.0123393 0.212474 159 109 117 0.530417 0.559408 0.637841
0.037783 0.0106898 0.212839 145 124 126 -0.52826 -0.833148 -0.167909
0.0413343 0.0105857 0.209402 128 132 118 -1.45342 -0.801418 -0.749474
0.0538605 0.013711 0.211604 115 121 134 2.95716 -1.54853 3.35918
-0.0437397 0.0167065 0.214404 151 158 166 0.899972 -0.163874 0.426398
-0.0406212 0.0181166 0.212079 108 57 42 0.974128 0.192393 -0.136823
-0.0391972 0.0178269 0.212344 81 52 39 0.991172 -0.12958 0.0376809
-0.0148326 0.0179135 0.212199 110 79 91 0.964111 -0.154046 -0.221437
-0.0133689 0.0175437 0.212931 111 83 84 0.855658 -0.107481 -0.511007
-0.0079591 0.0184551 0.212507 130 79 77 0.229403 -0.957756 0.187036
-0.0040569 0.0204364 0.211563 138 82 83 0.372513 -0.897114 0.238632
0.00155825 0.0216259 0.211373 146 101 98 0.0561757 -0.954029 0.3104
0.0059002 0.0220802 0.213251 98 93 100 0.0752001 -0.997734 -0.046942
0.0130993 0.0203851 0.210883 147 91 87 -0.0589376 -0.98804 0.143197
0.0194484 0.0193698 0.212118 163 102 103 -0.712329 -0.70161 0.0763406
0.0230967 0.0162727 0.212357 180 120 128 0.973569 0.186917 0.149783
0.0287324 0.0162877 0.211104 136 70 77 0.867804 -0.0652531 -0.498081
0.0315653 0.0171493 0.213057 148 110 119 0.755168 -0.496021 -0.449546
0.0338546 0.0140502 0.214266 148 118 111 0.830177 0.558963 -0.0637368
0.0508397 0.0204672 0.214472 162 150 117 0.833988 0.500754 0.233237
0.0532807 0.017171 0.213261 123 131 139 0.907279 0.42423 0.0451107
-0.04419 0.0208755 0.215865 143 150 151 0.485877 -0.363701 0.7957
-0.0402886 0.0232754 0.214315 120 81 88 0.427789 0.259196 0.868065
-0.0382958 0.0233069 0.212316 88 46 41 0.937043 -0.295606 0.196565
-0.0193674 0.0221416 0.212016 122 108 117 0.766785 0.473017 0.433931
-0.0164704 0.0198531 0.210361 116 79 100 -0.192018 -0.958351 -0.248575
-0.0116323 0.0199257 0.211396 100 77 85 0.133985 -0.926205 -0.352861
-0.00626764 0.0200405 0.212141 126 85 87 0.379766 -0.920765 -0.0954984
-0.00137485 0.0216446 0.211676 120 61 58 0.290468 -0.955575 -0.0569701
0.00187832 0.0222157 0.212002 144 88 85 -0.0918466 -0.991479 0.0958421
0.00620181 0.0228441 0.212145 141 83 85 0.206844 -0.976776 0.0579564
0.0124524 0.023374 0.212373 155 104 105 -0.142039 -0.97378 0.182312
0.0166513 0.0208069 0.212222 150 90 91 -0.347532 -0.875734 -0.338435
0.0227814 0.022912 0.212286 132 82 83 0.389848 -0.921074 -0.0123068
0.0274334 0.0219293 0.212102 130 85 117 0.587749 -0.381715 0.714678
0.0293344 0.0211926 0.211254 169 149 150 0.989846 0.135062 0.0809691
0.0490919 0.0237145 0.210552 134 104 83 0.859079 0.512798 0.0164664
0.0506275 0.0211351 0.213847 126 141 161 0.834295 0.530642 0.171941
-0.0383315 0.0284284 0.212302 132 139 138 0.896344 0.387247 0.222651
-0.0369668 0.0271009 0.211286 112 55 47 0.847354 -0.409268 0.339391
-0.0362874 0.027903 0.211252 99 46 31 0.963112 -0.230983 0.14474
-0.00206494 0.0235161 0.21303 109 87 98 0.0040409 -0.998946 0.054883
0.00278138 0.0232446 0.214156 111 97 96 0.0550936 -0.987152 0.159814
0.008449 0.023644 0.211712 131 63 60 0.249967 -0.931832 -0.26904
0.0141138 0.0250239 0.212833 113 65 59 0.561959 -0.715192 0.425361
0.017772 0.0250159 0.212109 141 95 98 0.28875 -0.710031 -0.64273
0.0221332 0.0260117 0.211533 98 101 99 0.858268 0.38495 0.341476
0.0465867 0.0277058 0.213386 190 152 137 0.937727 0.30952 0.217383
-0.0384089 0.0302314 0.213435 151 157 162 0.870597 -0.391244 0.326252
-0.0348244 0.0305463 0.213487 139 112 111 0.68843 -0.610498 0.393364
-0.0331779 0.0333804 0.211546 114 57 47 0.709099 -0.687403 0.158334
-0.0294666 0.0353989 0.212292 102 56 55 0.687027 -0.727209 0.0232977
0.0191898 0.0289123 0.212253 96 99 96 0.566515 -0.71719 0.423976
0.0226702 0.0315541 0.211451 101 101 91 0.240968 1.4766 -0.081374
0.0409177 0.0359414 0.212303 113 123 133 0.816755 0.460305 0.371524
0.0423737 0.0343681 0.212883 176 130 146 0.626658 0.533267 0.57271
0.0459279 0.0327162 0.210414 137 145 154 0.28125 0.270091 0.922364
0.0515778 0.0335942 0.212397 137 147 159 -6.77021 2.04947 1.22148
-0.0343719 0.0345813 0.211949 141 148 152 0.673026 -0.704592 -0.246468
-0.0306764 0.0359528 0.213208 126 99 95 0.336947 -0.777126 0.532862
-0.0271005 0.0374327 0.21235 112 66 71 0.693374 -0.715733 -0.0909336
0.0393084 0.0373926 0.213711 149 131 138 0.821219 0.385737 0.43293
0.0423134 0.0386536 0.210844 139 144 142 0.202101 0.200797 0.995133
0.0471559 0.0376912 0.210839 142 151 156 -0.141835 -0.36692 1.0266
-0.0306072 0.0398617 0.212678 139 145 147 0.659357 -0.65472 -0.371915
-0.0245078 0.0395634 0.214 135 87 77 0.723496 -0.520117 0.476744
-0.023978 0.0445197 0.211877 118 61 49 0.625328 -0.779768 0.0729693
-0.0192481 0.0460836 0.21237 132 75 66 0.53239 -0.84757 -0.00088235
0.0327791 0.0448879 0.212525 180 134 147 -0.310156 -0.902677 -0.299183
0.0371272 0.0431874 0.212722 147 120 133 -0.543936 -0.802486 -0.246267
0.0400102 0.0416367 0.211194 137 143 148 -0.6215 -0.729344 -0.32537
0.0451787 0.0408008 0.212664 151 155 160 0.0963047 -0.372626 3.03822
-0.026651 0.0460189 0.215433 136 142 148 0.203949 -0.244173 0.979737
-0.0218378 0.0462896 0.212623 114 118 122 0.76141 -0.652927 -0.173704
-0.0174635 0.0469746 0.211848 131 69 60 0.644709 -0.72653 0.238034
-0.013109 0.0495277 0.211562 132 64 57 0.496459 -0.841995 0.228132
-0.00888741 0.0496295 0.21244 132 72 66 -0.119128 -0.99349 0.0436858
-0.00325546 0.0507027 0.212475 121 73 77 -0.00714253 -0.993281 -0.122127
0.0024283 0.0509032 0.212302 118 80 89 0.0299309 -0.999398 -0.0185572
0.0186692 0.0517284 0.211422 119 128 134 -0.116447 -0.985244 0.146669
0.022232 0.0503097 0.211293 160 90 86 -0.179408 -0.980286 0.0852413
0.0284143 0.0497107 0.212943 159 124 128 -0.559163 -0.832936 -0.0264219
0.031211 0.046404 0.212882 135 131 133 0.696755 0.696004 0.208637
0.0362259 0.0439033 0.212619 125 132 130 -0.15139 -0.816734 -0.647507
-0.0200694 0.0517375 0.213072 151 153 163 0.763839 -0.653585 -0.133415
-0.0177979 0.0509307 0.213014 120 125 131 -0.151999 0.429055 0.893171
-0.0120241 0.051711 0.213194 117 120 127 -0.318723 -0.91241 0.258595
-0.00704012 0.0505221 0.211984 131 78 77 0.115568 -0.984035 -0.163977
-0.00260252 0.0506562 0.21178 131 81 76 0.0678212 -0.977222 -0.201502
0.00201029 0.0516582 0.212835 149 98 89 0.472392 -0.857681 -0.203578
0.00779344 0.0536174 0.212182 148 111 111 -0.101775 -0.995671 -0.00678376
0.0125297 0.0528222 0.213459 136 102 109 -0.111789 -0.907137 -0.406492
0.0178643 0.0518795 0.213095 145 108 105 -0.44633 -0.894364 -0.0745694
0.0218351 0.050232 0.21349 160 142 144 -0.323165 -0.927033 -0.192032
0.027331 0.0499496 0.213117 129 137 140 -0.241318 -0.968431 0.0809423
-0.0165448 0.0537323 0.212439 165 169 167 0.30538 -0.969151 -0.150363
-0.0137337 0.05679 0.21197 177 183 190 -1.98939 -1.10979 0.0109028
0.00386477 0.0563664 0.212974 127 132 135 0.434006 -0.901538 -0.110462
0.00745949 0.0553935 0.212764 127 134 137 -0.401513 -0.912846 -0.0846805
0.0122284 0.0544174 0.21202 134 143 139 -0.0324692 -0.986132 -0.24885
0.0161094 0.0531821 0.211699 132 137 141 -0.52432 -0.851218 0.0356818
-0.0157967 -0.0520936 0.216481 75 75 73 -0.64398 -1.59633 0.403375
-0.0113317 -0.0525499 0.216467 81 80 81 0.428089 0.681769 -3.30064
-0.00564215 -0.0542162 0.217133 90 91 83 -0.165824 0.315183 0.934431
-0.00217237 -0.054577 0.21775 91 92 87 -0.255759 0.278074 0.925884
0.00242188 -0.0529956 0.2178 89 92 93 -0.559461 0.827768 0.650554
0.0045126 -0.0522645 0.218516 94 97 98 0.764173 -0.300245 -0.570869
-0.0215895 -0.0473639 0.215307 76 79 75 1.18274 1.55948 1.46672
-0.0156638 -0.0467351 0.218742 102 103 100 0.0844741 -0.439039 0.905373
-0.0125901 -0.047944 0.217535 161 157 157 0.495531 -0.550976 0.703445
-0.00688643 -0.0467402 0.215887 148 156 159 0.172798 -0.862565 -0.491232
-0.00252925 -0.047808 0.216515 143 151 160 0.0141535 0.168146 0.985769
0.00224018 -0.045956 0.216186 152 159 162 0.00421665 -0.989557 -0.146939
0.0087351 -0.0442051 0.215805 139 142 144 -0.0441177 -1.01299 -0.0746617
0.0126872 -0.0445551 0.216188 142 146 148 -0.0805629 -0.997804 -0.0419564
0.0185299 -0.0455761 0.215307 148 157 162 0.0605971 -0.927096 0.398656
0.0199732 -0.045669 0.215003 134 142 137 0.367885 -0.911841 0.202376
-0.0315574 -0.0401408 0.216612 90 89 70 0.55798 0.354426 0.787776
-0.027393 -0.0429489 0.217066 79 83 71 0.409725 0.383868 0.924501
-0.021458 -0.0414294 0.217381 114 120 119 -0.403013 0.170226 0.908291
-0.0164642 -0.0405048 0.217655 177 178 186 -0.15884 -0.818462 -0.558191
-0.0116141 -0.0432902 0.215522 153 156 163 0.0652096 0.533393 0.843568
-0.00707157 -0.0433313 0.21562 165 171 176 -0.23509 0.538493 0.809879
-0.00244605 -0.043908 0.216765 156 163 172 0.240803 -0.902261 -0.357897
0.00283733 -0.0448069 0.217383 135 145 152 -0.102372 -0.955327 -0.28463
0.00741677 -0.0448467 0.214638 129 135 146 0.0221899 -0.903687 -0.427915
0.0128646 -0.0445153 0.216413 139 144 149 -0.0572383 -0.998811 0.0273364
0.0177572 -0.0455159 0.216367 143 143 139 0.0866488 -0.990998 0.218082
0.0233957 -0.043175 0.216555 132 137 135 0.539203 -0.836057 -0.14947
0.0281381 -0.0407289 0.217459 125 132 128 0.489139 -0.912702 -0.132518
-0.0320274 -0.0364315 0.217787 131 134 123 0.360528 0.140681 0.931842
-0.0257472 -0.0368123 0.216289 169 165 162 -0.559586 -0.706787 0.437143
-0.021804 -0.0386691 0.216421 178 179 185 -0.252949 0.616769 0.751424
-0.0168622 -0.0389661 0.215399 146 156 167 -0.0652396 0.609445 0.791486
-0.0134721 -0.0376179 0.214729 147 153 163 0.0885557 0.426068 0.922111
-0.00808965 -0.0413142 0.215743 125 135 131 -0.160974 -0.923749 -0.348035
-0.00300686 -0.0391043 0.217418 125 135 133 -0.216387 -0.608998 0.831657
-0.000741292 -0.0390453 0.218744 147 154 158 1.00127 0.124513 -0.0643542
0.0247694 -0.0414752 0.215175 127 131 127 0.619886 -0.727702 -0.294769
0.0290592 -0.0385799 0.217015 132 133 134 0.619639 -0.775866 0.150007
0.0321867 -0.0364703 0.216661 113 121 119 0.472469 -0.651758 0.596986
0.0350596 -0.0374848 0.216449 106 112 111 1.09215 -0.641682 0.14486
-0.0354448 -0.0323618 0.219032 133 134 131 0.772193 0.345207 0.535513
-0.031427 -0.0313064 0.216203 160 159 151 -0.0924869 0.651268 0.75492
-0.0274584 -0.0332918 0.216954 178 180 182 -0.464853 0.0309319 0.888869
-0.025824 -0.0338758 0.215861 164 170 181 0.659188 0.604641 0.496191
-0.0190013 -0.0345678 0.214125 147 157 167 0.111196 0.55079 0.827564
-0.00133688 -0.0323024 0.219041 193 192 199 -0.792791 -0.193136 0.606068
-0.00151969 -0.0314634 0.218751 188 183 192 0.986128 -0.176504 -0.184193
0.00876386 -0.0325976 0.217179 147 138 166 1.68106 0.810028 -0.0393304
0.0327563 -0.0324455 0.219189 106 110 109 0.520192 -0.215769 0.842148
0.0378718 -0.0338146 0.216076 108 112 110 0.648519 -0.758614 0.456563
0.040452 -0.0310804 0.217642 126 131 128 0.740184 -0.5953 -0.312643
-0.0399899 -0.0257303 0.217326 164 164 162 0.810797 0.556017 0.184644
-0.0370613 -0.0277423 0.216332 136 142 138 0.686677 0.659479 0.320779
-0.0326717 -0.0282879 0.216381 157 156 159 -0.273357 -0.0205671 0.968673
-0.0288164 -0.0264958 0.216574 148 158 167 0.617039 -0.368222 0.712915
-0.0112729 -0.024665 0.220666 186 180 167 -0.296707 -0.807925 -0.509596
-0.00746387 -0.0248634 0.216691 188 170 153 -0.344669 -0.915643 -0.211992
-0.00265572 -0.0277966 0.217261 184 169 158 -0.332456 -0.942339 -0.0769873
0.00250885 -0.0279569 0.218805 202 194 193 0.656903 -0.523184 0.554108
0.00640311 -0.0269462 0.218373 203 192 187 -0.510997 -0.19499 0.838247
0.0109034 -0.0258995 0.217331 209 198 187 0.762118 -0.58142 0.291816
0.0206842 -0.026103 0.217448 182 170 164 0.115724 -1.02823 0.17629
0.0306262 -0.0239642 0.220828 138 133 126 0.789006 0.415181 0.50168
0.0317821 -0.0266132 0.219186 160 159 147 0.608107 0.0115822 0.87494
0.042177 -0.0278735 0.216895 125 128 125 0.722489 -0.395043 -0.692239
-0.0398318 -0.0216461 0.21644 148 153 150 0.875292 0.301965 -0.547254
-0.0397612 -0.0220888 0.216948 140 149 152 0.984571 0.101266 -0.168003
-0.0295764 -0.0216622 0.21582 151 155 170 -1.23442 -0.753496 0.409619
-0.0279102 -0.0232088 0.218007 141 151 158 1.11577 0.487457 -0.584075
-0.0151892 -0.0214028 0.220272 197 192 189 0.490033 0.552616 0.678423
-0.0122793 -0.0212477 0.217961 207 190 171 -0.500672 -0.755459 -0.424841
-0.0117057 -0.023308 0.217403 213 200 204 0.792559 0.598113 0.119389
-0.0023112 -0.0214538 0.218341 225 217 218 -0.406843 0.609713 0.698156
0.00360354 -0.0212229 0.21735 214 200 193 0.753745 -0.0416019 0.659214
0.00735227 -0.020333 0.216442 124 127 129 -0.487542 -0.732565 -0.476936
0.0113532 -0.0224845 0.217447 227 222 219 0.955698 -0.114933 0.329369
0.023552 -0.0216344 0.217032 204 183 170 0.931529 -0.0683752 0.361966
0.0251124 -0.0215767 0.217422 202 190 189 0.939074 -0.275167 0.21244
0.0338661 -0.0224252 0.217991 144 144 140 0.772997 -0.0821989 0.630651
0.0442727 -0.0234383 0.216711 115 116 111 0.976472 -0.32188 -0.142826
0.0449084 -0.0215337 0.215089 114 114 121 1.04009 -0.221827 -0.0378495
-0.0454881 -0.0182203 0.217396 144 146 147 0.0479939 0.450318 1.05602
-0.0411123 -0.0164161 0.21678 136 140 144 0.873876 0.481229 -0.172413
-0.0382707 -0.0188958 0.217332 127 135 131 -0.654409 0.255714 0.738876
-0.0325981 -0.0191937 0.216234 147 149 154 -0.382637 -0.868255 -0.425838
-0.0180785 -0.0182651 0.217004 182 163 151 -0.743047 -0.663974 -0.23334
-0.0121124 -0.0165615 0.218475 217 201 201 0.645142 -0.0264338 0.801642
-0.000302562 -0.018876 0.215613 123 128 126 0.675306 -0.430125 -0.616325
0.00270612 -0.0169122 0.216157 148 153 158 0.10289 -0.716183 -0.690705
0.00664131 -0.0168636 0.216126 142 148 153 0.184153 -0.917548 0.353103
0.0128611 -0.017314 0.215924 124 129 130 -0.623668 -0.405953 0.670157
0.0169161 -0.014683 0.21559 124 126 131 0.0774493 -0.85901 0.510297
0.0230213 -0.0167443 0.216638 159 158 158 0.861665 0.485483 0.153735
0.0273459 -0.0166434 0.216642 162 159 156 0.273249 -0.960614 -0.149935
0.0336712 -0.0181444 0.218041 115 109 88 -0.857927 -0.412551 -0.656769
0.0353948 -0.0190001 0.216093 105 92 82 0.67658 0.406084 0.699962
0.0443517 -0.0165887 0.219383 141 133 122 0.985758 -0.394677 0.262151
-0.0454053 -0.0129563 0.214334 145 150 153 -0.557413 0.297257 0.795435
-0.042378 -0.0120413 0.213895 139 143 147 0.106115 -0.0268996 0.995725
-0.0390972 -0.0139991 0.215244 150 154 156 -0.510855 0.167019 0.844301
-0.0366242 -0.0129875 0.214385 80 83 70 0.619583 -0.0766192 0.796012
-0.0275281 -0.0106975 0.218561 180 167 142 0.0858367 -0.807105 -0.584135
-0.0235468 -0.0109803 0.218814 171 171 171 -0.0347681 0.762684 0.663047
-0.0162932 -0.0117578 0.217627 209 195 195 0.141546 -0.856704 0.496063
-0.0117806 -0.0111542 0.217543 200 191 192 0.77972 -0.610671 0.179645
-0.00893119 -0.0101171 0.216229 152 160 170 0.43334 -0.862429 0.276581
-0.0015573 -0.0119873 0.216215 159 166 172 -0.470301 -0.81701 0.347402
0.000879275 -0.0128718 0.218085 182 180 185 -0.516302 -0.609571 0.601783
0.0080428 -0.0143017 0.219159 183 184 193 0.108442 -0.667344 0.739229
0.0129031 -0.0146526 0.216047 135 144 149 -0.197185 -0.977104 0.0999428
0.0184621 -0.0132536 0.217137 125 131 130 0.108005 -0.386496 0.917064
0.0211423 -0.0122998 0.216086 120 124 120 0.74715 -0.647755 -0.153729
0.0245691 -0.0106598 0.217071 141 144 143 0.923872 -0.361935 -0.185535
-0.044918 -0.00782225 0.214235 144 148 148 -0.785276 -0.0923124 0.645233
-0.0413079 -0.00719742 0.216351 136 134 132 0.663454 0.224774 -0.715461
-0.0390513 -0.00797652 0.217349 150 150 154 -0.528213 -0.591929 0.616766
-0.0344853 -0.0098373 0.216979 88 88 77 0.254077 -0.908599 0.549433
-0.0233081 -0.00686353 0.215758 138 136 150 0.834276 -0.330736 -0.453367
-0.0170776 -0.00645893 0.219118 145 144 149 -0.296945 -0.112383 0.94841
-0.0115307 -0.00745119 0.216711 154 157 164 0.835134 0.0338013 0.552863
-0.00789825 -0.00850773 0.218672 206 199 204 -0.38985 -0.773356 0.500172
-0.00315588 -0.00988319 0.217638 195 190 197 -0.0224782 -0.836791 0.564285
0.00281182 -0.00746433 0.221215 163 163 166 -0.185428 -0.188494 0.9988
0.0100807 -0.0113764 0.219332 189 190 200 0.370545 -0.676653 0.641921
0.0129885 -0.00924772 0.218019 174 176 187 0.528326 -0.633141 0.565799
0.0182287 -0.00690951 0.217867 162 161 167 -0.383707 -0.361811 0.852751
0.0241056 -0.0087952 0.215585 108 115 121 0.627851 -0.423816 -0.657708
0.0255059 -0.00627721 0.216458 114 120 122 0.965903 -0.292376 -0.096112
-0.0433827 -0.00206272 0.214816 138 140 143 -0.746583 -0.0767053 0.666773
-0.0421925 -0.00204088 0.216955 137 135 145 0.911165 -0.117272 -0.398844
-0.0398031 -0.0014644 0.219716 164 158 150 0.916819 -0.00462661 -0.409882
-0.025235 0.000127346 0.218955 134 133 118 0.881536 0.357157 0.354437
-0.0221277 -0.00292703 0.217545 139 130 142 -0.293641 -0.926982 -0.241741
-0.0173753 -0.00151272 0.218072 151 153 156 -0.458549 -0.734562 -0.51897
-0.0138458 -0.0019622 0.21742 181 181 184 0.888304 0.262098 0.380089
-0.0113127 -0.00384493 0.219641 234 229 229 0.752891 0.530248 -0.393147
0.000474678 -0.00464226 0.220471 121 121 123 -0.255105 -0.265055 0.941571
0.019854 -0.00463052 0.21803 175 178 187 0.767196 -0.535243 0.357775
0.0234326 -0.00165187 0.217667 158 157 160 -0.0178973 -0.47208 0.88141
0.0284284 -0.00350019 0.217028 111 119 118 -0.485193 0.115931 0.873204
0.0315062 -0.00211191 0.218118 158 158 161 0.547125 -0.731739 -0.410032
0.0355288 -0.00105428 0.219052 182 181 192 0.29751 -0.841637 -0.480327
-0.050634 0.00404793 0.218309 178 180 176 -2.31057 -0.434383 0.756626
-0.0448331 0.00301198 0.215141 133 141 146 -0.443883 -0.133606 0.898054
-0.0402393 0.00296952 0.216417 148 140 144 -0.68011 0.353101 0.672078
-0.0401597 0.00127033 0.217359 165 161 160 0.953967 -0.240185 -0.195365
-0.0312412 0.00410095 0.222122 127 131 126 0.352344 0.402679 0.871752
-0.0260171 0.000630228 0.218589 157 147 120 0.494624 -0.650524 0.58119
-0.0208312 0.00242468 0.217326 170 164 172 0.873109 -0.47611 0.119477
-0.0192475 0.00284206 0.217219 169 168 171 0.826005 0.565019 0.0191133
-0.0136385 -0.000677943 0.217177 215 204 208 -0.446829 -0.8951 -3.26071e-05
0.02126 -0.000624679 0.219156 195 195 200 0.779648 -0.425029 0.496816
0.0226413 0.000853678 0.21922 171 170 174 0.664483 0.527612 -0.531158
0.0258529 0.00332688 0.218578 148 153 152 0.808312 -0.158697 0.571865
0.0323861 0.0010868 0.214255 171 169 164 0.031185 0.32679 0.946839
0.0382821 0.0019706 0.216603 191 186 182 0.89038 -0.116925 -0.443411
0.0399177 0.00186819 0.217521 183 177 180 0.931325 -0.477969 -0.161966
-0.0507469 0.00834388 0.217796 135 153 160 0.116876 0.194467 1.41439
-0.0469773 0.00731601 0.214816 131 136 144 0.385868 0.0260072 0.932358
-0.0402733 0.00699219 0.216185 138 129 133 0.861313 -0.146019 -0.492021
-0.0395771 0.00718583 0.218382 152 150 148 0.92854 -0.0465261 -0.373085
-0.019822 0.0058347 0.216701 161 161 168 0.934848 -0.347513 -0.0996988
-0.020201 0.00903079 0.216881 169 165 176 0.897642 -0.406542 0.171917
0.0182233 0.00580921 0.218336 201 202 206 0.843725 0.362239 -0.406029
0.0235196 0.00677796 0.218988 177 176 187 -0.278707 0.539515 0.799287
0.0290067 0.00758387 0.215365 111 110 110 0.209535 -0.452775 0.869504
0.0320579 0.00840116 0.216805 229 227 226 -0.293702 -0.384488 0.875915
0.0363439 0.00770027 0.216733 212 206 206 0.267837 -0.557271 0.804737
0.0389988 0.00719945 0.2139 163 155 140 0.978964 -0.0237733 0.271985
-0.0501601 0.0114632 0.217405 148 152 160 -0.467772 0.206914 1.71325
-0.0467972 0.0123618 0.215759 134 139 138 0.3794 -0.160653 0.914344
-0.0396317 0.0129727 0.215098 163 162 171 -0.608745 -0.120785 0.785557
-0.0389171 0.0128507 0.217238 124 117 125 0.917276 -0.206073 -0.347524
-0.0203928 0.0108446 0.217807 177 177 178 0.772125 -0.6955 0.159697
-0.0180062 0.0121739 0.216132 161 156 172 0.792165 -0.465167 0.398149
-0.0138654 0.0135801 0.216422 164 157 163 0.762196 -0.638289 -0.242026
-0.00885307 0.01608 0.220636 192 192 197 0.358584 -0.66313 -0.664148
-0.00249347 0.0154667 0.22047 106 105 109 0.116601 0.424631 0.911926
0.00233933 0.0140671 0.218425 104 105 117 0.0995267 0.0991294 1.02798
0.00603936 0.0124269 0.218558 98 96 102 0.0472484 0.904779 1.19451
0.01584 0.0132072 0.22021 210 211 216 0.463857 0.0980706 0.881901
0.0187648 0.0127288 0.219198 182 181 187 0.625383 -0.21749 0.750063
0.0233548 0.0135329 0.218733 231 231 233 0.207981 0.635735 0.746258
0.0283154 0.0117497 0.216502 230 226 224 0.78882 -0.551668 -0.273049
0.0326762 0.0106836 0.216776 213 196 196 -0.319472 -0.939831 -0.12182
0.036329 0.00940323 0.217023 174 169 170 0.641961 0.597996 0.505036
0.0382264 0.00928736 0.214574 168 160 144 0.644739 0.709498 0.347302
-0.0478874 0.0177371 0.216111 145 148 155 1.65461 -0.559667 1.26816
-0.0415716 0.0169205 0.214334 172 166 170 -0.117478 0.0228509 0.993118
-0.0373924 0.0167544 0.218214 142 137 141 0.870583 -0.134788 -0.473905
-0.0358617 0.0179649 0.220417 158 157 150 0.836571 -0.133617 -0.538809
-0.0137232 0.0172848 0.217148 186 179 184 0.980088 -0.193749 0.118584
-0.011303 0.017545 0.216156 164 156 167 0.136681 -0.975006 0.183278
-0.00835646 0.0187395 0.217491 195 189 199 0.284923 -0.917793 -0.277268
-0.00364293 0.0208118 0.218212 195 187 194 0.378409 -0.857184 -0.350478
0.00425475 0.0196008 0.218794 197 196 196 -0.650349 -0.75107 0.169139
0.00761613 0.0179761 0.219189 199 198 198 -0.110685 0.0310093 0.993492
0.0130122 0.0190638 0.22011 231 230 230 0.0859792 0.394359 0.916941
0.0199037 0.0176346 0.217491 222 217 222 0.81018 -0.205063 0.555721
0.0218907 0.0168878 0.218194 251 251 251 0.816204 -0.412191 0.405843
0.0269858 0.016387 0.217607 228 221 222 -0.115102 -0.975725 -0.192151
0.0318341 0.0167979 0.218057 184 179 178 0.629864 0.373736 0.681395
0.035055 0.0170049 0.217614 166 166 158 0.687995 0.786271 0.129327
0.0500916 0.0166964 0.218636 188 185 191 0.829764 0.660899 0.200783
-0.0459489 0.0222858 0.217884 157 161 158 1.73466 -1.25197 0.437776
-0.0412938 0.0206246 0.215374 166 163 163 -0.203773 0.488801 0.877576
-0.0372349 0.0233106 0.21629 130 119 127 0.817029 -0.300239 -0.49303
-0.0358665 0.0213066 0.219307 164 159 163 0.849237 -0.147383 -0.511086
-0.0114004 0.0188763 0.218469 177 172 175 0.120032 -0.926321 0.362806
-0.00624114 0.0197139 0.21872 199 196 196 0.441174 -0.76017 0.480625
-0.00316555 0.0234864 0.216822 191 186 189 0.462508 -0.883819 -0.100665
0.00201997 0.022589 0.217592 203 198 201 -0.231861 -0.973628 -0.0349097
0.00622568 0.0218644 0.217461 207 202 205 -0.084888 -0.931077 -0.357918
0.0107283 0.0226226 0.216968 217 211 216 0.194908 -0.945911 -0.260848
0.0156858 0.0217624 0.216281 206 192 202 0.976851 -0.119251 0.186012
0.0215668 0.0196528 0.215207 219 207 203 -0.0930717 -0.838563 -0.53773
0.0270044 0.0214001 0.216395 166 144 148 -0.17696 -0.740852 -0.650349
0.0310149 0.0190877 0.215931 160 154 156 -0.617503 -0.735781 -0.316651
0.0485645 0.0224678 0.216981 203 197 191 0.815475 0.44194 0.378091
-0.0417321 0.0268782 0.215267 133 138 134 0.377214 -0.194876 0.907793
-0.0354558 0.0276314 0.217682 175 169 174 0.910113 0.0488862 -0.412218
-0.0352858 0.0277752 0.216949 137 123 132 0.955844 -0.20741 -0.217938
-0.0192045 0.0274801 0.220047 172 172 172 -0.647674 -0.35852 0.672296
-0.00540313 0.0243409 0.217908 182 184 191 0.563204 -0.840969 -0.0901142
-0.00318314 0.0255701 0.217371 190 189 188 0.389791 0.712799 0.655028
0.000360355 0.0240906 0.217781 191 189 194 -0.452541 -0.885972 -0.102087
0.00909927 0.0230799 0.216634 200 192 191 0.198861 -0.977106 -0.0875988
0.0151571 0.0254045 0.216789 222 222 225 0.730978 -0.680362 -0.0724991
0.0176734 0.0289037 0.217417 101 102 95 0.602876 -0.817538 -0.165375
0.0235135 0.0275819 0.214207 104 105 99 -0.0601342 -0.106759 1.00166
0.0297526 0.0250626 0.215643 112 106 99 -0.779828 -2.79646 -8.82519
0.0421736 0.0294895 0.219048 185 181 187 0.73528 0.557836 0.384944
0.044646 0.0273507 0.217185 205 203 207 0.733171 0.547935 0.402774
-0.0388487 0.0315601 0.216152 146 150 156 0.92979 -0.526363 -0.139876
-0.0368699 0.0319813 0.215815 154 144 136 -0.219123 0.486469 0.846078
-0.0326313 0.0331209 0.218267 163 154 161 0.664888 -0.623957 -0.411519
-0.0285169 0.036113 0.217015 162 158 166 0.505048 -0.863208 -0.0597321
0.0181005 0.02997 0.216228 104 102 93 0.502995 -0.814966 -0.287796
0.0227044 0.0315479 0.217009 119 113 105 0.619731 0.183088 0.876231
0.0399227 0.0342097 0.218164 254 254 254 0.742637 0.472067 0.514028
0.0419609 0.0315725 0.216224 243 236 232 0.750911 0.542009 0.387139
-0.034177 0.034703 0.215293 138 142 142 0.568962 -0.64528 -0.513597
-0.0311246 0.035073 0.215898 168 162 165 0.408784 -0.787073 -0.467072
-0.0263681 0.0373216 0.216647 181 164 168 0.485965 -0.679117 -0.562366
-0.0251039 0.0387068 0.217727 169 162 168 0.610511 -0.684486 -0.401583
-0.018841 0.040492 0.220671 138 143 147 0.643287 -0.554445 -0.540534
0.0344106 0.0381175 0.21941 204 208 214 1.66391 0.921912 -0.437229
0.0381288 0.0368651 0.217183 241 238 240 0.693433 0.528918 0.491543
-0.0314369 0.0412839 0.214665 133 141 149 0.391035 -0.275693 0.985996
-0.0270906 0.0427311 0.214412 109 115 124 0.0599146 0.0796753 1.03388
-0.0208222 0.0412254 0.217809 191 186 185 0.511949 -0.625805 -0.589355
-0.0186843 0.0436756 0.217823 207 200 202 0.568597 -0.664843 -0.484791
0.0292244 0.0440327 0.218579 172 177 173 -0.63114 -0.313261 -0.995997
0.0310249 0.0429632 0.218171 210 213 213 -0.199511 -0.447871 -1.13145
0.0359738 0.0406099 0.215078 187 190 192 0.480587 0.584181 0.662422
-0.0266632 0.0462887 0.215307 146 155 171 0.179217 -0.0852516 1.07348
-0.0210912 0.0459637 0.213488 127 129 141 -0.04425 0.243039 0.977223
-0.0160173 0.045307 0.216429 174 162 166 -0.311941 0.687211 0.661827
-0.00620145 0.0490924 0.217795 179 170 180 -0.244994 -0.847801 -0.470374
-0.00307667 0.0485331 0.218676 184 180 180 0.123525 -0.779813 -0.620866
0.00243143 0.0491889 0.218065 191 187 187 0.128863 -0.851762 -0.508761
0.00642666 0.0509237 0.217989 160 156 163 0.120358 -0.796852 -0.595921
0.0112068 0.0482167 0.219127 153 155 152 -0.104532 -0.807266 -0.582311
0.0173202 0.0509121 0.218491 217 216 221 -0.0509105 -0.841411 -0.547589
0.0230221 0.047463 0.219711 239 239 241 0.364936 0.577598 0.738838
0.0262908 0.0474785 0.216371 213 201 204 0.359569 0.720594 0.607705
-0.0213051 0.0500915 0.214227 155 164 171 -0.230863 0.365782 0.905203
-0.0165935 0.0511368 0.21426 146 151 156 -0.0917633 0.355365 0.93028
-0.0117656 0.0525816 0.216196 117 127 130 -0.256078 -1.5186 1.7817
-0.0073983 0.0503564 0.216285 169 152 156 -0.443366 -0.927858 -0.0802153
-0.00221665 0.0502301 0.215892 190 184 188 0.257448 -0.841386 -0.493403
0.00334145 0.05064 0.215715 196 192 193 -0.261596 0.500824 0.825909
0.0075841 0.0523221 0.216088 199 193 190 0.175931 0.639081 0.749684
0.0120761 0.0512968 0.216049 186 185 195 -0.00801972 0.736338 0.681882
0.0177084 0.0511228 0.216072 194 181 166 -0.0940324 -0.997038 -0.104913
0.022234 0.0503458 0.216724 193 179 164 -0.375724 -0.865353 -0.361161
0.0303796 0.0511964 0.215298 130 140 141 -0.393378 -14.8514 27.4408
0.00256313 0.0544543 0.215422 153 160 164 0.361152 -0.830944 -0.429569
0.00650539 0.0548903 0.215071 181 187 207 0.252767 0.617858 0.768338
0.00245014 -0.0544329 0.224514 101 101 92 0.0864065 -0.961572 -0.260603
0.00729397 -0.0535062 0.221951 104 101 101 0.395767 -0.594082 -0.831436
0.011348 -0.0513104 0.223715 116 108 95 -0.454657 0.238035 0.858269
-0.0123424 -0.0448895 0.21929 105 108 96 -0.0761102 -0.533948 0.851797
-0.00695798 -0.044489 0.219967 146 149 150 -0.0826401 -0.94405 0.327541
-0.00313399 -0.0453154 0.220854 175 179 184 -0.13148 -0.95665 0.281935
0.00191761 -0.045499 0.219456 147 154 152 0.144301 -0.825296 0.710378
0.00672851 -0.0479505 0.218447 169 171 168 0.198006 0.633877 0.755644
0.0165883 -0.0444314 0.220384 181 181 181 0.428085 -1.24285 -0.510389
-0.0345395 -0.039911 0.22151 112 107 97 0.830401 0.146266 0.537625
-0.0330115 -0.0424156 0.220592 103 100 94 0.592642 0.406306 0.695479
-0.0223795 -0.0398078 0.219091 107 108 94 -0.807613 -0.649699 0.39437
-0.0174935 -0.0434117 0.21943 152 158 154 0.0796715 0.429641 0.913118
-0.0110358 -0.0440697 0.219532 161 168 181 -0.251684 0.407406 0.899224
-0.00713971 -0.0443124 0.221016 112 124 131 0.0727988 0.505893 0.903988
-0.00280755 -0.0434107 0.223186 114 124 128 -0.255366 -0.750889 1.75738
0.000539403 -0.0454938 0.22251 111 122 125 -0.535852 -2.37029 2.33778
0.0179786 -0.0440938 0.221778 131 134 134 0.687991 -0.96913 0.73461
0.0225176 -0.0433431 0.221395 161 161 155 0.384872 -0.960719 0.57964
0.0260809 -0.0408493 0.219885 168 171 171 0.779436 -0.665098 0.076906
-0.0366928 -0.0360423 0.223401 113 112 111 0.924057 0.223572 0.310056
-0.024864 -0.0368408 0.221606 107 105 107 2.25763 1.10343 -4.27428
0.0256527 -0.0353871 0.223348 124 123 109 1.47676 0.480952 -0.83859
-0.0372849 -0.0318502 0.222111 106 104 91 0.890902 0.313542 0.328611
-0.0260123 -0.0344971 0.219116 99 96 94 -0.624137 0.535223 0.769744
-0.000709407 -0.0307078 0.221339 193 195 212 -0.720809 -0.527518 0.520111
0.00174196 -0.0313233 0.221433 186 190 204 -0.304276 1.81236 0.44013
0.00778023 -0.0329262 0.21929 189 191 193 0.564199 0.0578745 0.823608
0.0288443 -0.0317939 0.221445 132 131 131 0.7613 -0.0487784 0.656361
-0.0377608 -0.0285163 0.221219 134 133 134 1.23515 0.516167 0.347584
-0.0136712 -0.0243568 0.222207 192 193 207 0.841613 0.548873 -0.0671924
-0.0113639 -0.0250446 0.222569 173 177 188 -0.0106321 -1.03433 -0.0111785
-0.00572369 -0.0254715 0.221184 184 186 197 -0.279913 -0.861566 0.599361
-0.00252275 -0.0265021 0.219896 180 186 202 0.140211 0.126942 0.985381
0.00269767 -0.0274614 0.220269 203 204 216 -0.183684 0.540652 0.843036
0.0068228 -0.0271501 0.220076 179 185 193 0.101984 -0.0116545 0.995336
0.0113098 -0.0257237 0.2216 187 190 205 0.914797 -0.449584 0.43147
0.0202623 -0.0260584 0.220884 199 200 203 0.90225 -0.304392 0.305434
0.0290961 -0.0284006 0.222657 117 115 105 0.913311 -0.191636 0.367517
0.0301955 -0.0266938 0.220538 126 127 122 0.818309 -0.0479746 0.626826
-0.0256778 -0.0235791 0.219254 141 151 150 -0.366846 -0.24913 0.896302
-0.0181713 -0.0205699 0.222482 194 197 201 2.51159 1.50964 0.0127593
-0.0134273 -0.0222087 0.219787 187 192 206 0.366955 0.496581 0.79081
-0.00768537 -0.0251686 0.220703 188 190 201 -0.0798338 -0.899555 -0.47395
-0.00521261 -0.0251725 0.220197 181 188 196 0.244543 0.570884 0.787743
0.00265072 -0.0211585 0.220491 236 236 238 0.436378 0.0792226 0.991714
0.0113121 -0.0215204 0.220838 233 233 235 0.941062 -0.396448 0.0625553
0.0200485 -0.0229915 0.221997 185 191 197 0.884016 0.0530545 0.685266
0.0233926 -0.0219756 0.218217 191 194 198 0.193785 -0.413156 1.11283
0.0280626 -0.0225662 0.222333 92 92 90 0.165711 0.466445 0.888638
0.0303902 -0.0215165 0.221824 115 115 114 0.951294 -0.336972 0.188115
-0.0380528 -0.0161053 0.217352 112 110 95 0.0432919 -0.302533 0.954965
-0.0210394 -0.0164974 0.221551 192 191 200 0.518987 0.229053 -0.944262
-0.018948 -0.0195279 0.221547 202 202 203 -0.439333 -0.482463 0.844921
-0.01355 -0.0175707 0.22012 189 193 204 0.657952 -0.289636 0.788247
0.00521598 -0.0170115 0.219482 229 232 233 -0.957788 0.21955 0.51452
0.00663291 -0.0158129 0.219347 239 240 240 0.00650813 -0.374478 0.934038
0.011734 -0.0166981 0.219287 175 177 180 0.319926 -0.12432 0.962988
0.0159115 -0.0173285 0.220654 189 191 192 -0.0942807 0.435089 0.896216
0.0228997 -0.0163569 0.218652 187 187 184 0.129452 -0.00631711 0.991879
0.0281603 -0.0150332 0.220114 164 168 168 -0.406544 -0.0440525 0.913082
0.0298202 -0.0173819 0.219872 118 114 115 0.662204 -0.00981534 0.80428
-0.035793 -0.00961208 0.220915 132 129 127 0.956701 0.22256 -0.357138
-0.0268507 -0.0102045 0.220595 195 197 199 -0.0727675 -0.661732 0.7462
-0.0220042 -0.0117438 0.220599 203 203 209 0.00524414 -0.134934 1.00134
-0.0173822 -0.0115624 0.220357 191 191 205 -0.0676409 0.16733 0.985104
-0.0134067 -0.0118763 0.2197 192 193 207 0.171301 -0.338594 0.932299
-0.00805883 -0.00915779 0.221931 184 188 198 0.126775 -0.708749 1.03419
-0.00267668 -0.0090287 0.220746 170 176 185 0.116167 -0.577365 0.875057
0.00299093 -0.0106211 0.220371 169 170 172 0.192546 0.0734343 0.978938
0.00763617 -0.0123682 0.219771 145 151 144 -0.171188 -0.0458994 0.985947
0.0117991 -0.0128726 0.218584 153 157 162 -0.0067239 0.0342073 0.999778
0.0173916 -0.0137164 0.220097 155 160 166 0.365775 -0.240947 0.899128
0.0222976 -0.0115168 0.218272 179 182 182 -0.147257 -0.0358285 0.988576
0.0262052 -0.0108492 0.221038 173 172 173 -0.407975 0.289599 0.884582
0.0317611 -0.0113825 0.222242 109 107 107 0.045756 -0.13209 0.994745
0.0360895 -0.010501 0.221456 129 119 113 0.194003 -0.118461 0.973822
0.0440264 -0.0147629 0.224187 181 165 186 0.429675 -0.840303 0.330561
0.0455114 -0.0144799 0.222976 157 142 156 0.429675 -0.840303 0.330561
-0.0380523 -0.0067506 0.222583 122 124 113 0.624952 0.435616 -0.65331
-0.0231957 -0.00673513 0.220678 136 140 132 0.18177 0.331762 0.939089
-0.0167199 -0.00717239 0.220537 157 160 172 0.275059 0.0995419 0.958533
-0.0120391 -0.0073628 0.219936 165 170 172 -0.0170999 -0.0867151 0.996425
-0.00786802 -0.00661342 0.220535 159 167 183 0.12144 -0.176449 0.990056
-0.00177827 -0.00689577 0.219943 169 172 181 -0.0224393 -0.120451 0.996435
0.00267371 -0.00787497 0.220961 115 127 131 0.0172048 -0.0155487 1.00438
0.00842383 -0.00756618 0.22107 136 142 140 0.168863 -0.496579 0.86699
0.0130526 -0.00727139 0.220298 156 158 160 0.283932 -0.479695 0.838047
0.0180802 -0.00781325 0.219034 143 149 147 -0.223368 -0.106839 0.972871
0.0229122 -0.00667398 0.218928 173 174 174 0.0760954 0.0551021 0.996446
0.0284351 -0.00820541 0.221445 179 177 179 -0.515873 0.230138 0.829225
0.0310396 -0.00602829 0.223514 108 111 103 -0.201374 0.158922 0.99726
0.0374929 -0.00793746 0.221715 168 170 174 -6.07947 10.8802 19.1571
-0.0384771 -0.00300366 0.220513 154 152 145 0.89707 0.241736 -0.372268
-0.0380951 -0.00125365 0.222835 122 124 109 0.802064 0.0162558 -0.598062
-0.031916 -0.00166612 0.223843 131 137 142 0.457778 0.258085 0.93117
-0.0284937 -0.00153825 0.220141 141 144 145 0.333011 0.62569 0.828351
-0.0215515 -0.00320906 0.220205 144 148 147 -0.182745 -0.354272 0.921691
-0.0162054 -0.00252151 0.219472 135 137 141 -0.210944 0.196285 0.957647
-0.0117839 -0.00379853 0.220132 176 182 191 -0.332646 0.175662 0.927329
-0.00819298 -0.00212356 0.221928 175 179 186 -0.352698 -0.501543 0.809449
-0.00385843 -0.00370361 0.222417 150 158 161 -0.0838481 -0.428925 0.922414
0.00144841 -0.00414414 0.222068 111 123 122 1.76378 1.35942 0.15213
0.00981587 -0.00488615 0.223593 132 142 143 0.288534 -0.714364 0.63752
0.0147876 -0.00490964 0.221776 170 174 179 0.458812 -0.528697 0.744765
0.0189684 -0.0041964 0.219376 161 162 165 -0.441443 0.489012 0.755812
0.0220143 -0.00209274 0.219099 144 146 144 0.32277 -0.377803 0.875508
0.0276301 -0.00225727 0.220353 159 163 162 -0.553812 -0.448913 0.702698
0.0323058 -0.00301096 0.220374 141 142 135 0.406351 -0.90935 -0.101204
0.0374628 -0.000627141 0.22211 125 133 146 0.282677 -0.955536 -0.223676
0.0410719 -0.00114039 0.220732 145 149 154 12.237 8.63962 20.8077
-0.0389127 0.000728405 0.220208 155 153 145 0.902781 0.0635098 -0.4368
-0.0377315 0.00361867 0.22211 128 128 124 0.851361 -0.344621 -0.395864
-0.0274907 0.00439769 0.221913 155 158 157 -0.342618 -0.128225 1.03876
-0.0226478 0.00264977 0.218892 183 180 166 0.235688 0.127707 0.965706
-0.0174844 0.00316059 0.220114 145 148 144 -0.231508 -0.332442 0.914519
-0.0124155 0.00224919 0.2218 209 211 212 -0.423721 -0.296003 0.857382
0.0187951 0.00139991 0.221325 160 165 163 0.516732 -0.375559 0.827411
0.0236514 0.00177417 0.220732 124 129 131 -0.529754 0.110072 0.841915
0.0242481 0.00362083 0.22267 120 127 131 0.963996 -0.146481 -0.231011
0.0388904 0.00204312 0.221167 182 185 203 0.878457 -0.00815676 0.634212
-0.0390905 0.00480532 0.219634 174 171 163 0.745831 -0.344366 -0.596565
-0.0362565 0.00821391 0.222245 120 122 119 0.759888 -0.349935 -0.558595
-0.0347866 0.00529314 0.223593 99 106 113 0.29286 0.398716 0.953124
-0.0290915 0.00479607 0.22143 159 162 161 -0.350945 -1.67424 0.0578701
-0.0192843 0.00548681 0.22039 173 172 165 0.741031 -0.38373 -0.566815
-0.0176515 0.00788184 0.223514 155 158 148 -0.407675 -0.311725 0.900324
-0.0121861 0.00834769 0.22504 141 147 147 -0.0163792 -0.0266068 1.01584
-0.00881953 0.0076673 0.223877 122 127 125 0.648171 -0.435054 -0.757974
-0.00509148 0.0117534 0.224125 115 124 126 0.413866 -0.830611 -0.387642
0.0151139 0.00929591 0.221577 103 99 97 0.588229 0.434696 0.705968
0.0185071 0.0082925 0.22129 182 183 190 0.441021 0.441911 0.782995
0.0246715 0.00569846 0.220112 133 141 144 -0.600992 0.22727 0.767508
0.0261755 0.00720669 0.220769 155 160 168 0.837507 -0.0748136 0.564307
0.0328445 0.00921418 0.219999 153 160 176 0.107034 -0.665267 0.741767
0.0351541 0.00693429 0.222015 155 160 178 0.90299 0.399842 0.182962
-0.0358477 0.0137702 0.221077 140 139 136 0.654135 -0.236823 -0.733148
-0.033784 0.0124899 0.222696 117 121 116 0.34608 -0.205107 -1.50181
-0.0197639 0.01187 0.219922 156 166 150 1.04936 0.0326254 -0.0803723
-0.0182134 0.0122343 0.223029 153 151 154 0.667702 -0.18162 -0.73237
-0.0127548 0.0137053 0.222739 156 161 156 0.454673 -0.870093 -0.191364
-0.00813257 0.0136838 0.223262 148 151 152 0.39363 0.260937 0.881573
-0.00411748 0.0134395 0.221656 110 112 113 0.429225 0.656406 0.64055
0.00893725 0.0116826 0.221192 107 109 108 0.201847 0.894822 0.721997
0.0141954 0.0128878 0.222263 161 165 165 0.195351 0.515411 0.854239
0.0181153 0.0138277 0.220867 152 155 165 0.180852 0.227782 0.960352
0.0233383 0.0128215 0.219398 178 181 182 0.065928 0.0454703 0.997197
0.0275001 0.012347 0.219102 204 207 211 0.146798 -0.0460603 0.988327
0.0323335 0.013571 0.219785 197 201 210 0.0100227 -0.0259765 1.00339
0.0344588 0.0114843 0.218927 155 161 167 0.572183 0.11847 0.812566
-0.0360025 0.018434 0.219858 139 142 143 -0.655323 0.217632 0.733988
-0.0332905 0.0174106 0.222403 118 120 115 0.037474 -0.0715224 -1.45676
-0.0161781 0.0174775 0.222071 173 175 178 0.766869 -0.45054 -0.48317
-0.0123774 0.0163256 0.221105 160 163 158 0.0735156 -0.755632 -0.653491
-0.00845036 0.0176153 0.220469 175 176 168 0.00509108 0.564385 0.827579
-0.00258822 0.0169732 0.220556 171 172 170 0.0662443 0.512531 0.867385
0.00268958 0.0195162 0.219839 144 150 151 -0.0176558 -0.199309 0.98088
0.00841372 0.018269 0.219838 144 148 150 -0.0443238 -0.0414979 1.00475
0.0129203 0.0172388 0.220919 149 153 164 0.123357 0.169951 0.97771
0.0179294 0.0173588 0.220155 164 168 174 -0.0483375 0.0516222 0.997822
0.0229386 0.0181899 0.219171 198 202 199 -0.0517691 -0.0592254 1.0018
0.0278968 0.0168826 0.219806 186 188 190 0.221066 0.271668 0.938073
0.0314882 0.0169865 0.220428 160 163 169 0.0250447 0.541183 0.850748
0.0485601 0.0197131 0.220143 189 189 197 0.791858 1.14934 -0.0840721
-0.0346788 0.0222943 0.221411 138 140 139 0.784836 0.114963 -0.72858
-0.0324712 0.0231167 0.222376 129 130 130 0.0696452 0.0350449 1.44783
-0.0142917 0.0220976 0.220989 176 179 181 0.998997 0.189513 0.103699
-0.0120289 0.0220542 0.221591 152 154 159 0.207305 -0.545332 0.814804
-0.00704787 0.0195983 0.219784 159 161 156 0.0497063 0.327124 0.943803
-0.000363525 0.0215887 0.218824 192 190 185 -0.300359 0.36259 0.888681
0.00304901 0.0212755 0.220009 178 178 174 -0.196533 0.198953 0.966424
0.00745392 0.0211222 0.219888 178 182 184 0.172823 0.26004 0.950124
0.0123063 0.0228572 0.22027 138 144 155 0.0522567 -0.44624 0.898546
0.018525 0.0220698 0.22154 177 180 188 -0.148651 -0.562814 0.837302
0.0238531 0.0184066 0.220418 215 214 222 -0.144948 -1.09598 0.218016
0.0469264 0.0208351 0.220906 157 160 179 0.83978 0.403547 0.363207
-0.0346615 0.0270142 0.221138 157 160 157 -0.840114 0.0299946 0.618484
-0.0323093 0.0292339 0.222196 149 149 147 0.068397 -0.102303 -1.37921
-0.0291619 0.0272391 0.221603 141 141 135 -0.496845 0.281264 -4.36824
-0.017413 0.0269527 0.221586 165 167 184 0.691331 0.388285 -0.60934
-0.0146059 0.0246831 0.223633 156 163 182 -0.27979 -0.745122 0.606072
-0.00827935 0.026105 0.221224 173 177 176 0.504544 -1.05802 0.618132
0.00385797 0.0248607 0.221762 127 139 149 -0.433649 0.266207 0.887606
0.00841915 0.0244486 0.222926 183 186 187 0.0335771 -0.552418 0.937835
0.014939 0.024526 0.220548 214 215 214 0.306387 -0.869292 0.425237
0.0172233 0.0260149 0.223252 254 254 254 -0.446798 -0.903762 0.396073
-0.0341467 0.0304241 0.219467 198 202 207 -0.495393 0.0381108 0.871978
-0.0309069 0.031435 0.221978 163 164 161 0.788618 -0.576224 -0.325401
-0.0284295 0.0333181 0.222562 141 142 138 0.377095 -0.30824 -1.02417
-0.0235105 0.0344797 0.223585 137 144 146 0.687314 -0.462735 -0.82264
0.0363245 0.0343779 0.221096 117 131 150 0.561803 0.493428 0.664008
-0.0303795 0.0333498 0.220259 197 197 200 0.559831 -0.71097 -0.494342
-0.0266805 0.0359361 0.221149 179 182 184 0.388317 -0.795236 -0.489158
-0.0228883 0.0373839 0.221502 158 161 152 0.242787 -0.703807 -0.789393
-0.0197953 0.0387977 0.221393 150 149 155 0.489136 -0.607445 -0.67576
-0.0193455 0.0406297 0.219389 231 231 231 -0.594487 0.628465 0.549604
-0.0164081 0.0420337 0.22145 162 164 159 0.527585 -0.457119 -0.769903
-0.0128843 0.044888 0.222423 135 133 141 1.11091 -2.29906 3.42454
-0.00821248 0.043798 0.220635 176 175 178 2.47712 -3.71595 9.26114
-0.0104532 0.0469502 0.223028 154 154 158 0.664231 -0.461333 0.588192
