ply
format ascii 1.0
element vertex 680
property float x
property float y
property float z
property uchar red
property uchar green
property uchar blue
property float nx
property float ny
property float nz
end_header
-0.0120286 -0.0316573 0.0626432 137 112 110 0.212777 0.499822 0.840347
-0.00730811 -0.0312075 0.060836 134 94 85 0.533394 -0.49139 0.701324
-0.00434522 -0.0299338 0.0627996 134 82 73 0.59905 -0.463123 0.653206
0.00313392 -0.0326206 0.0631017 134 85 69 0.335637 -0.341943 0.879727
0.00646137 -0.0309483 0.062523 129 80 70 0.588632 -0.668557 0.456043
0.0126266 -0.0292387 0.0619105 130 75 74 0.0443554 -0.994985 -0.0914828
0.0176166 -0.0315432 0.0636794 124 122 114 -0.137105 -0.763945 -1.5085
-0.079934 -0.0273377 0.0642658 121 67 30 1.06453 0.242343 0.267662
-0.0777888 -0.0271755 0.0620001 127 69 47 0.821979 0.566636 0.0662105
-0.0730075 -0.0274087 0.0623797 120 82 55 0.921276 -0.580671 0.117219
-0.0236097 -0.0261042 0.0615592 189 181 168 1.02901 0.205518 0.0185285
-0.0224415 -0.0264314 0.0613985 171 150 141 -0.441444 -0.835811 0.329264
-0.018006 -0.0283368 0.0623848 158 108 104 -0.138757 -0.995164 -0.0498124
-0.0129106 -0.027346 0.0629414 159 98 90 0.571348 -0.801207 -0.18228
-0.00656772 -0.0277182 0.0635043 158 90 87 0.296514 -0.313176 0.902325
-0.00189982 -0.0264354 0.062798 166 101 101 0.376533 -0.90035 0.222489
0.000838668 -0.0257268 0.0619716 171 105 105 0.715718 0.697935 0.038621
0.00573336 -0.0281518 0.0634351 148 69 71 0.885836 0.400791 -0.242221
0.0108838 -0.0267269 0.0614708 139 63 64 0.388501 -0.920397 0.0441807
0.0158389 -0.0261679 0.0624116 130 68 58 0.954406 -0.23084 0.198234
0.0207699 -0.0271558 0.0620119 121 53 41 0.870279 -0.415385 -0.27976
-0.080522 -0.0215341 0.0622714 119 57 44 0.878113 0.324837 0.351851
-0.0809688 -0.0232648 0.0630503 113 59 38 0.97628 0.0918324 -0.200409
-0.0731189 -0.0231354 0.0614739 100 74 57 0.995669 0.0303911 -0.0942072
-0.0246502 -0.0226399 0.0621395 188 168 157 0.909932 0.373649 -0.180322
-0.024783 -0.0228618 0.062639 170 122 118 0.951436 0.262357 -0.166329
-0.0112304 -0.0209984 0.0614534 185 128 122 0.82742 0.167666 0.628624
-0.00721014 -0.0211399 0.0622193 176 114 109 0.908593 0.37541 0.208621
-0.00391163 -0.0232985 0.0635515 179 119 127 -0.505528 -0.858681 -0.100669
0.00330772 -0.0232273 0.0623803 163 91 85 0.233267 -0.933165 -0.303348
0.0071608 -0.0217917 0.0623202 164 88 81 0.755914 0.220117 0.629074
0.014423 -0.0233263 0.0601395 147 69 68 0.652984 -0.0197862 -0.763711
0.0174691 -0.0216698 0.0625888 141 67 60 0.130108 -0.995275 -0.121981
0.0196023 -0.0198309 0.060942 101 40 27 0.767056 -0.602438 0.22447
-0.083879 -0.0153854 0.06186 114 53 42 0.919421 0.390165 0.0598653
-0.0825734 -0.0165732 0.0616032 120 68 43 0.752825 0.0535644 0.658529
-0.0769865 -0.0168027 0.061192 123 80 57 0.158906 0.383328 0.910184
-0.0749335 -0.0168236 0.0610236 116 90 80 0.975126 0.199317 0.111068
-0.0242801 -0.0172251 0.0621802 159 128 118 0.982703 0.187298 0.0279844
-0.0232531 -0.0168484 0.0632422 161 114 101 1.00142 0.042306 -0.0102079
-0.0157415 -0.0136757 0.0617831 154 98 76 -0.406944 -0.881949 0.238757
-0.0119516 -0.0166641 0.0620573 158 93 65 -0.636898 -0.755451 0.165032
-0.00850706 -0.0191254 0.0623046 181 126 127 -0.463968 -0.884011 0.0760554
-0.00324335 -0.0206912 0.0629836 174 105 101 -0.280292 -0.959565 0.0405798
0.00294191 -0.0212549 0.0631817 170 97 97 0.303885 -0.899085 0.321132
0.00831128 -0.0191936 0.0625012 138 67 56 0.608626 -0.808931 0.119486
0.0116538 -0.0173918 0.0621076 154 72 67 0.0816404 -0.869512 0.555007
0.0172532 -0.0197779 0.0635926 146 74 62 -0.278001 -0.891982 0.384638
0.0231961 -0.0179263 0.0622063 134 64 55 0.654612 -0.757728 -0.056076
0.0255409 -0.0150032 0.0620581 133 64 50 0.570181 -0.823945 -0.00658453
-0.0848869 -0.0112977 0.0627885 111 52 37 0.918219 0.309989 -0.246838
-0.0818136 -0.0124649 0.0623114 116 55 41 0.786596 0.00385847 0.621451
-0.0776057 -0.0111403 0.0603066 124 83 57 0.0930528 -0.715279 0.695681
-0.0731499 -0.0126758 0.0586324 104 64 38 1.21781 0.054797 0.959264
-0.0307179 -0.0102485 0.0631515 163 151 144 -0.012931 -1.04715 -0.916756
-0.0268795 -0.013421 0.0621252 145 111 96 -0.193509 -0.594931 -0.82246
-0.0226432 -0.0116838 0.0652621 138 85 68 -0.0519805 0.182351 0.988949
-0.0166612 -0.0133623 0.0623783 132 67 38 -0.616121 -0.784056 -0.0758769
-0.0122935 -0.0160871 0.0642429 184 136 130 -0.393896 -0.917595 -0.0688963
0.0145931 -0.0152327 0.0629823 151 71 66 0.830994 -0.588123 0.125537
0.0164283 -0.0119363 0.0641176 155 80 69 0.708842 -0.600039 -0.376462
0.0241802 -0.0113414 0.0618759 147 68 65 0.799806 0.563595 -0.212561
0.027054 -0.0137919 0.0624616 138 68 63 0.520913 -0.654281 0.549031
0.0294998 -0.0127671 0.0613762 143 87 72 0.898349 -0.387519 0.2287
-0.0862459 -0.00639677 0.0622992 107 58 32 0.971009 0.223993 -0.0988287
-0.0837532 -0.00977654 0.0621146 117 55 47 -0.206865 -0.961985 -0.178504
-0.0792692 -0.00865701 0.0628247 127 77 51 0.702048 0.562101 -0.445914
-0.0743881 -0.0110525 0.0610462 89 74 72 0.686659 0.715175 -0.395202
-0.0348772 -0.00696898 0.0606782 194 186 172 3.97925 0.895327 2.70554
-0.0271219 -0.00714164 0.0613472 124 93 88 -0.452251 0.332031 0.829957
-0.0228798 -0.00723951 0.0635731 121 64 51 0.878005 0.486067 -0.0555601
-0.0197181 -0.0100938 0.063306 126 63 46 0.764676 0.65151 -0.0568477
0.0164312 -0.0102718 0.0641149 143 63 69 0.939566 -0.342731 -0.00288056
0.0191613 -0.00919921 0.0619702 171 97 87 0.58384 -0.641775 -0.506441
0.0220837 -0.00708418 0.0629489 152 72 65 0.0815253 -0.793041 -0.605148
0.0274682 -0.00769344 0.0618801 145 73 55 -0.0116795 0.460845 0.887557
0.030088 -0.00815438 0.0603736 129 65 46 0.793743 0.22152 0.569204
-0.0852417 -0.00204536 0.0618715 121 63 41 0.976926 -0.00491042 -0.216847
-0.0823295 -0.000720144 0.062002 126 71 52 0.335442 -0.811408 0.495597
-0.0798784 -0.00284886 0.0615251 133 94 66 0.984928 0.109158 -0.176974
-0.0293393 -0.00356892 0.0626411 176 140 105 0.812814 -0.581539 0.0795006
-0.0245031 -0.000435234 0.0596768 119 85 68 -0.445659 -0.358116 0.832394
-0.0234502 -0.00239072 0.0631379 117 66 46 1.00275 -0.00277932 -0.082277
0.0175874 -0.0041285 0.0616734 164 81 59 0.990749 -0.150189 -0.0841115
0.0193839 -0.00321192 0.0629109 163 80 69 0.611796 0.874331 -0.201896
0.0245176 -0.00521011 0.0611789 161 81 71 0.419926 -0.915872 -0.025551
0.0291088 -0.00416579 0.0609681 157 76 70 0.719223 -0.697774 -0.127706
0.02989 -0.00306423 0.0605087 117 74 67 0.955064 0.0155339 0.298313
-0.0852932 0.00353344 0.0625518 132 73 40 0.932649 0.128197 -0.345179
-0.0807239 0.00387177 0.0645964 126 68 48 0.648593 0.307447 0.696777
-0.0791546 0.00263675 0.0618458 130 91 63 0.998423 0.00497674 -0.062834
-0.0773165 0.00460504 0.0656006 119 83 75 0.894518 -0.0967865 -0.492918
-0.0259121 0.00209036 0.061976 159 118 85 0.943188 -0.324107 0.122409
-0.024866 0.00170059 0.0626994 114 62 34 0.941549 0.294801 -0.197775
0.0294021 0.00403168 0.0611808 137 82 62 0.935112 0.407401 -0.05764
0.0298435 0.0015575 0.0622415 104 65 51 0.963121 0.168088 0.233811
-0.08593 0.00660077 0.0620099 120 63 38 0.765505 -0.610593 -0.221165
-0.0811319 0.00837147 0.0613473 131 76 55 0.975216 0.156384 0.162489
-0.0789121 0.0061958 0.0628674 128 76 64 0.997308 0.103102 0.0207342
-0.0283586 0.00490364 0.0619725 197 144 136 0.981475 -0.225036 -0.109159
-0.0255365 0.0071866 0.0610288 197 148 136 0.884513 -0.471082 0.0124159
-0.0250279 0.009036 0.0609598 129 80 62 0.825606 -0.564831 -0.0167252
0.0153273 0.0106647 0.0615994 186 138 99 -0.842066 -0.593972 -0.00137187
0.0171171 0.00849464 0.0621765 191 110 95 -0.542834 -0.811295 0.270833
0.0243088 0.00929804 0.0622136 142 73 39 -0.274231 -0.913216 -0.30669
0.0273007 0.00653302 0.0619081 138 76 50 0.793069 0.584325 0.177396
0.0281898 0.0054379 0.0597088 183 105 79 0.826891 0.539521 0.185111
-0.0837238 0.0100511 0.0606268 128 69 43 0.851562 -0.439427 -0.301028
-0.0816177 0.0139904 0.0619263 121 62 39 -0.669993 -0.707721 0.22596
-0.0793448 0.0128876 0.063148 132 82 77 0.974329 0.159746 0.161616
-0.0709369 0.0130772 0.0624857 113 72 59 0.98328 -0.611185 -0.976545
-0.0252308 0.0101531 0.0626711 186 151 153 0.941841 -0.532767 -0.0522598
-0.0225348 0.0120219 0.0618637 186 136 133 0.914921 -0.333051 -0.229224
-0.0196975 0.0143693 0.0621406 192 134 132 0.547765 -0.840836 -0.0265173
-0.0149799 0.015968 0.061343 171 110 88 0.413668 -0.906587 0.0879679
-0.00557779 0.0177065 0.0649011 120 56 36 -0.23834 -0.864982 -0.469929
-0.000471024 0.0157216 0.0610796 133 44 39 0.00887933 -0.97976 -0.262257
0.00377722 0.0162127 0.0622132 116 34 24 -0.236429 -0.956505 -0.194543
0.00896435 0.0147762 0.0624431 165 110 69 -0.432206 -0.882308 -0.20307
0.0144414 0.0125562 0.0613013 192 140 111 0.937935 -0.109368 -0.329297
0.0153543 0.0118683 0.0610779 168 98 78 0.843346 0.555272 -0.0619495
0.0234987 0.0120761 0.0619013 185 99 85 0.893507 0.258933 0.389609
0.0244165 0.010795 0.0615815 193 102 85 0.973702 0.215412 0.0834908
-0.0832447 0.0154633 0.0624284 135 80 50 0.926476 -0.387101 -0.0270468
-0.0827409 0.0181498 0.0619211 134 84 51 0.872751 -0.217004 -0.44516
-0.0778303 0.0155203 0.0621402 127 76 61 -0.0300899 -0.921716 0.386764
-0.0721748 0.0169739 0.0640817 125 62 64 0.878429 -0.511926 0.171206
-0.0214381 0.0148981 0.0618652 163 122 113 0.793149 -0.619141 -0.0760611
-0.0166628 0.0164932 0.0625254 178 125 115 0.108245 -0.992321 0.104575
-0.0123093 0.0175534 0.0613501 176 115 100 0.349199 -0.649687 0.683865
-0.00619677 0.0188471 0.0618053 152 78 55 0.198072 -0.976783 -0.0828074
-0.000699795 0.0186042 0.0619588 128 53 34 -0.306981 -0.867704 -0.400192
0.00253817 0.0176451 0.0619619 141 69 47 0.718478 0.654 0.237157
0.00778821 0.0165985 0.0602487 135 65 44 0.186687 0.646504 0.740304
0.0144929 0.0166187 0.0625703 144 86 48 -0.546687 -0.844149 -0.0602004
0.0155526 0.0171047 0.0611403 209 159 121 1.00047 -0.00549537 -0.023761
0.0233696 0.0194454 0.0623423 86 49 15 -1.28644 -3.66669 -0.0140997
0.026434 0.0183739 0.0618544 76 52 41 -0.221323 -0.482307 1.06497
-0.0818557 0.0218822 0.0619522 138 84 54 0.919274 -0.387192 -0.0740525
-0.080603 0.0233483 0.0630875 132 83 55 0.954037 -0.169549 -0.271956
-0.0724834 0.0223811 0.0629804 122 71 50 0.963498 -0.237567 0.141915
-0.069704 0.0237745 0.0616392 99 66 58 0.997499 -0.0690549 0.0448916
-0.0199862 0.0189757 0.0625729 212 154 159 0.347852 -0.771454 0.688408
-0.015772 0.023712 0.0634549 175 117 107 -0.211007 -0.989806 0.719373
-0.0124771 0.0218002 0.060884 165 103 80 -0.552634 -0.869083 -0.251615
-0.00748226 0.0194934 0.0611485 152 87 62 -0.166904 -0.941322 -0.299512
-0.00123668 0.0209699 0.0621633 137 68 46 0.539296 -0.821543 0.189231
0.00307203 0.0237318 0.0618563 117 52 31 0.10975 -0.952917 0.304872
0.00692914 0.0232816 0.0615 133 74 46 -0.0906814 -0.973511 0.210192
0.0112443 0.0203554 0.0611579 133 74 46 -0.513046 -0.85627 -0.0639273
0.0186286 0.0189635 0.0613039 84 35 3 -0.00229164 -1.01118 -0.0682382
-0.0800871 0.0260897 0.0629123 140 91 61 0.925626 -0.379012 0.0372945
-0.0787193 0.0279305 0.0610978 131 81 54 0.958007 -0.281961 -0.069017
-0.071491 0.0275563 0.0625032 134 82 49 0.580357 -0.638265 0.527175
-0.0694532 0.0271664 0.061367 66 56 53 1.02508 0.0691281 0.104469
-0.0021948 0.0274436 0.0629704 154 99 64 -0.624439 -0.807308 -0.0219548
0.00176358 0.0250346 0.0614973 162 106 67 -0.0542845 -0.99449 0.0945872
0.00690228 0.0246602 0.0615845 181 119 80 -0.296896 -0.95477 -0.018101
-0.0789509 0.0309778 0.0632191 149 102 64 0.963509 -0.270469 -0.00641334
-0.0786565 0.0334 0.0615769 142 94 70 0.930236 -0.351814 -0.110511
-0.0702805 0.0327684 0.0631464 132 83 54 0.983732 -0.056053 0.173943
-0.0699081 0.0346199 0.0609198 55 44 48 0.994521 -0.113161 0.00586619
-0.0746081 0.0378282 0.0619688 156 112 69 0.924302 -0.380774 -0.0351889
-0.0706314 0.0378527 0.0608579 140 88 61 0.848789 0.539984 0.0379151
-0.0703621 0.0383994 0.0615612 123 76 55 0.984512 -0.236531 0.0390581
-0.0745926 0.04099 0.0624913 144 96 85 1.00388 -0.0909312 -0.0319642
-0.0717721 0.0420387 0.0620093 139 93 83 0.864242 -0.50378 0.0132607
-0.0680977 0.0445394 0.0613802 151 97 67 0.493747 -0.736106 0.466301
-0.0637905 0.0438676 0.0583999 49 28 30 0.654227 -0.41505 0.633585
-0.0691883 0.045295 0.0619315 153 105 94 0.644059 -0.715273 -0.293938
-0.0667384 0.046345 0.0625232 152 97 70 0.753737 -0.653046 -0.0779852
-0.0654783 0.0471354 0.0630976 155 108 82 0.998349 0.0662641 -0.171944
-0.0655258 0.050715 0.0609359 152 107 80 0.857932 -0.44232 -0.278125
-0.0632793 0.053045 0.0614944 154 103 71 0.55627 -0.836625 0.0450196
-0.0593739 0.0534987 0.0621052 87 46 33 0.924473 -0.374077 -0.0736161
-0.0639285 0.0541224 0.0611467 145 99 80 0.753185 -0.663661 -0.102131
-0.0587207 0.0569647 0.0616332 152 103 77 0.759955 -0.645534 0.0927572
-0.0584825 0.0574691 0.0617868 164 115 92 0.85888 -0.516283 -0.0349081
-0.0550099 0.0605311 0.0621698 108 55 46 0.40956 -0.857833 -0.313525
-0.047775 0.0604923 0.0631712 59 30 42 0.417183 -0.902086 0.126445
-0.0598772 0.0587134 0.0634922 162 125 117 0.610732 -0.794739 -0.0976594
-0.0551154 0.0628432 0.0618893 171 123 110 0.841897 -0.531285 -0.127523
-0.0535781 0.0630285 0.061009 145 94 92 0.809354 -0.562466 0.190124
-0.0483928 0.0620891 0.0615945 113 58 39 0.228975 -0.781997 -0.587413
-0.0436522 0.0636058 0.0620527 80 38 30 0.298121 -0.957259 -0.00506339
-0.0389391 0.0650758 0.0615469 69 14 13 0.1506 -0.994942 -0.0203589
-0.0324035 0.0646133 0.0631443 60 35 37 0.479192 -0.877725 -0.049176
-0.0544007 0.0652037 0.0619776 172 126 121 0.671012 -0.739219 0.0653795
-0.0505642 0.0664612 0.0622928 174 125 120 0.59347 -0.785035 -0.180915
-0.0481341 0.0679973 0.0611209 153 101 94 0.451431 -0.867971 0.208614
-0.0418976 0.0665417 0.0611579 94 27 16 0.745326 0.600328 -0.290288
-0.0375565 0.0678713 0.0611256 87 24 2 0.882475 0.328216 0.34626
-0.0334722 0.0663326 0.0616404 69 22 10 0.366933 -0.928877 0.0599429
-0.0303576 0.0684598 0.0623497 53 27 20 0.833086 -0.544067 -0.106099
-0.0450087 0.0691851 0.0619143 148 94 90 0.512568 -0.850095 -0.157374
-0.0414025 0.0705309 0.0611173 159 106 104 0.414614 -0.907104 -0.0855673
-0.0370775 0.0718923 0.0647976 92 30 5 0.668454 0.6558 -0.350931
-0.0344904 0.0705829 0.0621373 78 19 4 -0.610953 -0.679208 0.408177
-0.0292373 0.0720348 0.0614196 72 19 13 -0.344302 0.322813 0.881639
-0.0248109 0.074183 0.0618307 68 40 22 0.707142 -0.650891 0.294422
-0.0362496 0.0740676 0.0620896 141 76 54 0.523416 -0.84975 -0.0775443
-0.0310494 0.0767624 0.0612574 108 41 26 0.346705 -0.931316 -0.115201
-0.026094 0.0778871 0.0616717 85 24 4 0.993473 0.00793861 -0.138274
-0.0231122 0.0773796 0.0621754 82 26 8 0.880886 0.454955 -0.213961
-0.0181611 0.0780686 0.062828 74 35 16 0.215606 -0.939156 -0.377525
-0.0144873 0.0778081 0.0617534 74 28 3 -0.513418 -0.814639 -0.298588
-0.00809413 0.0780177 0.0623569 69 46 41 0.382062 -0.890945 0.247729
0.00297004 0.0797451 0.061743 50 9 0 -0.288397 -0.953485 -0.0941489
0.00788233 0.0781392 0.0616443 48 12 5 -0.338907 -0.936013 -0.0983298
0.0122524 0.0759661 0.0635573 48 25 26 -0.937472 -0.575219 -0.773632
-0.0272648 0.0791236 0.0622327 122 65 67 0.271474 -0.962205 -0.0533046
-0.0217074 0.0809051 0.0616573 90 14 0 0.546129 -0.848073 -0.0812439
-0.018115 0.0838206 0.0617784 72 9 6 -0.361388 -0.850931 -0.395044
-0.0133842 0.0835677 0.0602097 64 5 0 0.249406 -0.942978 -0.221962
-0.00832539 0.08077 0.0608892 57 8 0 -0.331882 -0.938886 -0.145965
-0.00161502 0.0812988 0.0614706 45 5 0 -0.0913309 -1.00496 -0.0517852
-0.0140936 0.0850983 0.0635473 64 7 0 -0.631008 -1.07494 0.721785
-0.0400044 -0.081183 0.0671812 151 64 73 -0.586742 -0.803656 -0.107052
-0.0363744 -0.0838948 0.0667271 136 47 59 -0.38479 -0.918748 0.0885391
-0.0541592 -0.0751258 0.0694668 176 113 109 -0.214787 -1.6332 0.0152194
-0.0397461 -0.076128 0.0657957 129 46 54 -0.882049 -0.783072 0.532434
-0.0330439 -0.0759306 0.0676841 138 56 47 2.77424 -1.46001 0.0129762
-0.0575691 -0.070836 0.0672174 145 88 57 -0.716133 -0.425707 0.575839
-0.0509479 -0.0713334 0.0693643 149 86 96 0.58596 -0.770834 0.260263
-0.0484628 -0.0696055 0.0672174 141 68 77 -0.428176 -0.975571 -0.297486
-0.0423862 -0.0728139 0.0668509 137 63 63 -0.61695 -0.803818 -0.0674104
-0.0588475 -0.0683915 0.0669232 176 127 114 0.868516 0.0693751 -0.4991
-0.0576504 -0.0654705 0.0680257 138 77 80 0.711659 0.144256 -0.716055
-0.0533818 -0.067339 0.0694243 140 75 84 -0.355322 -0.586807 0.72962
-0.0486125 -0.0699491 0.0660334 130 58 63 -0.703259 -0.737866 -0.0668319
-0.0628952 -0.0603542 0.0682464 124 47 46 0.751722 0.637124 0.179456
-0.061757 -0.0618148 0.068766 153 101 84 -0.678223 -0.722814 0.148072
-0.0594243 -0.0644939 0.0685246 155 99 101 -0.483607 -0.675352 0.564452
-0.0651945 -0.0565433 0.0678723 138 80 64 0.863889 0.322163 0.391178
-0.0645781 -0.0580469 0.0688339 149 90 97 0.912766 0.19621 -0.35851
-0.0681594 -0.0500786 0.0687593 149 95 90 0.857899 0.513762 0.0779868
-0.0654662 -0.0526976 0.0673341 141 81 71 0.896749 0.416542 0.152643
-0.0638983 -0.0521949 0.0668894 144 82 90 0.999339 0.00509083 -0.0469006
-0.0698047 -0.0459529 0.0673321 147 94 79 0.945183 0.238849 -0.299872
-0.0702203 -0.0475379 0.0661925 147 86 87 0.933067 0.362678 0.0477888
-0.0657126 -0.0517173 0.0670044 156 102 105 -0.481689 -0.905656 0.109524
-0.0731169 -0.040247 0.068654 138 84 81 0.892884 0.445799 -0.0688866
-0.0716856 -0.0428975 0.0671463 141 88 70 0.94631 0.319113 0.0572578
-0.0718808 -0.0424113 0.0666744 146 85 67 0.956239 0.260817 -0.134131
-0.0735529 -0.035786 0.0665333 131 71 54 0.972932 0.232325 0.00275708
-0.0732221 -0.0387542 0.0661919 138 86 61 0.893459 0.446791 -0.0505786
-0.0721293 -0.0375488 0.0682433 140 98 54 0.998792 0.0505542 0.0315037
-0.0130745 -0.0382152 0.065331 194 192 161 -6.18813 11.7617 4.47589
-0.00873355 -0.0359432 0.0668061 178 168 166 -0.362548 -0.939185 0.00893
-0.00252197 -0.0344877 0.0685447 130 118 112 -0.195961 -0.987538 -0.0763986
0.000728493 -0.0343126 0.0663804 147 125 115 0.529643 -0.849309 0.0251516
-0.0752731 -0.0308036 0.0682933 145 92 84 0.886299 0.454009 -0.10402
-0.0732244 -0.0333439 0.0666203 140 88 58 0.997095 -0.0578601 -0.0603593
-0.0707097 -0.0331251 0.0665374 116 94 103 0.947456 0.16582 -0.287941
-0.015698 -0.0294209 0.067258 163 145 146 -0.44745 -0.775838 -0.514037
-0.0128414 -0.0317055 0.0673595 137 110 117 -0.707954 -0.0297841 0.706311
-0.00810131 -0.0315111 0.0651388 130 91 87 0.4663 -0.0765758 0.885663
-0.00116045 -0.0345696 0.0654373 117 89 101 -0.0618729 -1.02512 -0.41795
0.00340398 -0.0320065 0.0662516 122 82 72 0.756598 -0.650086 0.0884441
0.00588035 -0.0294286 0.0649581 120 82 75 0.494718 -0.834059 0.245612
0.0138538 -0.0285306 0.0677497 139 46 57 -0.0153388 -0.995547 0.0938635
0.0168579 -0.0298528 0.0658461 119 73 71 0.418291 -0.908237 -0.0409879
0.0193334 -0.0283364 0.0693001 148 61 47 0.622887 -0.783185 0.0545045
-0.079268 -0.0252213 0.0659829 117 62 50 0.871956 0.442697 -0.216516
-0.0779292 -0.0267098 0.0663044 133 76 73 0.708917 0.651764 -0.269739
-0.0714184 -0.0277849 0.0649583 125 87 54 -0.742487 -0.165774 0.801102
-0.0699882 -0.0280838 0.0688827 131 100 60 0.949739 0.0275618 -0.312884
-0.0231389 -0.0275432 0.0704053 129 113 98 1.61917 -1.1614 -0.166609
-0.0218125 -0.0255933 0.067316 164 143 134 -0.598806 -0.795897 0.0935066
-0.0178433 -0.0262015 0.0678173 160 104 102 -0.182756 -0.918304 0.351229
-0.0126021 -0.0265485 0.0692602 161 99 85 0.0288233 -0.0362758 1.00391
-0.00822266 -0.0261341 0.0668549 160 90 88 0.654953 -0.375667 0.65693
-0.00124815 -0.0236284 0.0671469 159 89 89 -0.0105794 -0.983997 0.201351
0.00333669 -0.0267105 0.0675615 150 79 73 -0.660877 -0.743368 -0.104667
0.00625281 -0.0271771 0.0673356 146 67 70 0.999744 0.0543137 0.0485002
0.0109757 -0.0270355 0.0671082 142 62 64 0.465954 -0.704382 0.538325
0.0170711 -0.0252036 0.0678208 146 75 61 -0.464414 0.332064 0.821071
0.0210002 -0.0270296 0.0676256 122 58 50 0.923829 -0.374662 -0.088728
-0.0833887 -0.0202736 0.0662207 120 52 47 0.940124 0.366408 -0.000126412
-0.0806843 -0.0217421 0.0674562 125 67 62 0.743147 0.559226 -0.367574
-0.0757645 -0.02387 0.0660742 131 90 52 0.174427 -0.882322 0.438647
-0.0742746 -0.0217869 0.0672933 130 93 62 -0.410802 -0.836123 0.36742
-0.0236012 -0.0220199 0.0673506 166 146 138 0.967474 -0.211345 -0.158126
-0.0224232 -0.0223857 0.067524 161 115 115 0.940526 -0.202084 -0.278143
-0.0165571 -0.0205517 0.0708035 178 122 117 0.0631844 0.163578 0.984958
-0.0098749 -0.0206825 0.0685367 178 110 106 0.809979 0.386294 0.456626
-0.00807659 -0.0209559 0.0682684 167 104 95 0.282393 -0.115782 0.96602
-0.00199562 -0.0225306 0.068001 178 113 112 -0.620889 -0.769147 0.151737
0.00194172 -0.0227799 0.0677275 176 103 95 0.245446 -0.967661 -0.0594485
0.00743867 -0.0216943 0.0675865 162 88 76 -0.623878 -0.0273041 0.78675
0.012929 -0.0213936 0.0706035 147 75 63 0.0408639 0.0556259 0.998011
0.0167624 -0.0213973 0.0674653 131 60 46 0.0684426 -0.953317 0.299544
0.0190871 -0.0210106 0.0678619 107 46 36 0.895378 -0.342505 -0.303981
-0.0834713 -0.0167559 0.0657916 114 49 45 0.967085 0.0860169 -0.271836
-0.0828282 -0.0154311 0.0678843 127 71 39 0.763 -0.353811 -0.550441
-0.0743966 -0.0183228 0.06628 111 77 49 0.981291 0.200293 -0.0113278
-0.0222799 -0.0175427 0.0675942 161 111 102 0.863795 0.370624 -0.344725
-0.0162542 -0.0159208 0.0695868 170 115 104 -0.393706 -0.652594 -0.649504
-0.0117125 -0.0170574 0.0679899 172 116 108 -0.348602 -0.718523 -0.639933
-0.00878311 -0.0200567 0.0675884 172 104 103 -0.462236 -0.88658 0.096139
-0.00161315 -0.0223067 0.0671893 166 96 95 -0.0245533 -1.00653 0.0186055
0.0025463 -0.0207661 0.0685105 151 73 67 0.0678553 -0.998182 -0.0334067
0.00818486 -0.0198618 0.0674397 142 61 54 0.253214 -0.914358 -0.347825
0.0120443 -0.0160071 0.0694694 160 81 64 -0.508451 0.241628 0.848694
0.0193478 -0.0184 0.0684925 143 68 58 0.762314 -0.0658653 0.644985
0.0227838 -0.0172394 0.0672616 135 61 53 0.684963 -0.737271 -0.039629
0.0263864 -0.0143814 0.0658183 135 63 55 0.444065 -0.895825 -0.0587327
-0.0840534 -0.0116709 0.0654185 122 64 49 0.78828 0.0639328 -0.615748
-0.0818365 -0.0126117 0.0665033 138 84 63 -0.683892 0.200267 0.703622
-0.0783883 -0.0116917 0.0673507 142 102 51 0.940422 -0.0950069 0.372936
-0.0281012 -0.0129213 0.0659965 162 145 134 0.891148 0.431642 -0.245803
-0.0265092 -0.0116604 0.0666159 144 114 105 0.798551 0.55325 -0.244603
-0.0235317 -0.0131665 0.0697875 164 116 102 -0.616128 -0.456966 0.641553
-0.0169155 -0.0132033 0.0674734 156 96 70 -0.635583 -0.771411 -0.0441412
0.0126171 -0.0139744 0.0681125 143 65 58 0.892734 -0.419615 -0.171424
0.0153691 -0.0128304 0.0700093 173 101 85 0.670904 -0.295015 -0.683405
0.0226631 -0.0129775 0.0674854 150 71 70 -0.34549 -0.669487 -0.659425
0.0284508 -0.0135295 0.0662932 136 62 57 0.622181 -0.668087 -0.408949
0.0301131 -0.0119333 0.0653323 141 77 59 0.929362 -0.335066 0.186867
-0.0846857 -0.00714355 0.066307 119 59 44 0.949777 0.112428 -0.30164
-0.0825723 -0.00703645 0.0676778 140 85 57 0.198677 -0.639454 0.743194
-0.0770375 -0.007481 0.0652748 124 86 57 0.999146 0.0970257 0.0161717
-0.0760657 -0.00726284 0.0686989 129 93 76 1.0287 -0.0612752 0.204919
-0.0289125 -0.00473196 0.0701073 188 146 104 0.898578 0.368325 0.338143
-0.0265655 -0.00695827 0.068558 137 96 90 0.56203 0.116627 0.821248
-0.0223113 -0.00692391 0.0693147 148 101 83 0.764905 -0.34902 0.543017
-0.0206326 -0.00885656 0.0682747 147 89 68 0.862313 0.488047 0.164998
0.0169471 -0.00984272 0.0689742 153 64 73 0.8862 -0.5269 -0.08923
0.0193404 -0.00868648 0.0690238 164 86 68 0.917771 -0.354557 -0.185999
0.0222848 -0.00787978 0.0677212 151 72 64 0.973076 0.228802 0.0581561
0.0278362 -0.0088795 0.0664106 130 58 49 -0.538111 -0.642234 0.553131
0.029 -0.0077013 0.0656932 119 63 44 0.977583 0.192139 0.140611
-0.0847382 -0.00143571 0.0670316 128 74 36 0.993478 -0.0114148 -0.137492
-0.083659 -0.00243234 0.0681844 129 71 51 0.754526 -0.225766 -0.616677
-0.0782526 -0.00201773 0.0675891 123 86 75 0.878367 -0.0807047 -0.474047
-0.0763994 -0.00188668 0.0680094 95 69 69 0.990362 0.0824918 -0.124629
-0.0297966 -0.00136981 0.0666103 182 158 115 0.998327 -0.132662 -0.0615229
-0.0280259 -0.0030234 0.0676513 143 113 106 0.850969 0.196061 0.488919
-0.0241738 -0.00280543 0.0693362 130 75 54 0.905048 0.269505 -0.330874
0.0179223 -0.00223178 0.0676292 170 89 73 0.918357 0.455359 0.0725018
0.0214972 -0.00269218 0.0672231 159 77 67 0.80278 -0.570616 0.177355
0.0254621 -0.00199199 0.06663 147 71 57 0.961177 -0.172142 0.216501
-0.0842513 0.00217098 0.0673915 129 73 49 0.994878 -0.147071 0.0664509
-0.0817432 0.00298716 0.0678791 138 85 62 0.121034 -0.960509 -0.251665
-0.077614 0.00281105 0.0664076 128 89 68 0.834212 0.211379 -0.512151
-0.0761031 0.00292009 0.07031 113 72 57 0.857995 0.310851 -0.413903
-0.0256978 0.00213313 0.0655019 163 121 98 0.815733 -0.386429 -0.431135
-0.0239527 0.00246398 0.0668085 129 71 52 0.97155 0.215736 0.116828
0.0191928 0.00266106 0.069055 184 105 91 0.748571 0.371633 0.580953
0.024103 0.00193875 0.0689472 169 84 70 0.332472 0.171828 0.930074
0.0272283 0.00235569 0.0665504 143 78 56 -0.583775 -0.774224 -0.248942
0.0293252 0.000792719 0.0661715 134 81 63 1.05926 -0.00963238 0.00206229
-0.0838814 0.00779735 0.0668532 133 81 46 0.999865 0.0953764 -0.049761
-0.0822792 0.00831125 0.0677574 139 86 62 0.812026 -0.304101 0.498986
-0.078102 0.00919671 0.0633037 123 73 59 0.515938 0.107942 0.851209
-0.024772 0.00534389 0.065554 181 131 133 0.748783 -0.565487 -0.350088
-0.023049 0.0079949 0.0666916 173 117 119 0.922862 -0.326181 -0.207768
0.0153852 0.0102808 0.0672971 199 148 115 -0.825903 -0.557848 0.237984
0.0167228 0.0070749 0.066923 185 105 97 0.841377 0.564459 -0.0764474
0.0239773 0.00757063 0.0671693 173 92 72 0.736292 0.182271 0.674874
0.0255472 0.00636504 0.0665359 153 89 56 0.904185 0.442639 0.0215471
-0.0841674 0.0139683 0.0687796 154 113 70 0.974088 0.262651 0.154037
-0.0817658 0.0119019 0.0671335 128 71 50 -0.626561 -0.770746 0.116118
-0.0793517 0.0158524 0.0663328 121 74 66 0.525473 -0.813714 0.249231
-0.0213705 0.0117761 0.0672653 173 119 120 1.00612 -0.233155 0.0406959
-0.0211855 0.0142428 0.0673076 186 126 128 0.822397 -0.554478 0.142448
-0.00654547 0.015305 0.068455 169 113 101 0.115819 -1.05698 -0.0645827
-0.000794022 0.0160829 0.0661663 146 82 65 0.159584 -0.979312 0.128292
0.00528991 0.0153425 0.0670588 116 50 26 -0.396888 -0.916034 -0.0640633
0.00835676 0.0144759 0.0673017 174 121 72 -0.25044 -0.903427 -0.362472
0.014363 0.0121561 0.0663414 198 123 119 0.999682 0.0120225 0.054514
0.0164769 0.0127135 0.0660698 166 94 70 0.914653 0.334464 0.235738
0.0217714 0.0118297 0.0675313 152 87 50 -0.369181 -0.939138 -0.0236734
0.0260531 0.0129535 0.0684073 147 87 63 0.664996 -0.674762 -0.369372
-0.0833461 0.0154354 0.0688314 141 96 70 0.908057 -0.39146 0.151085
-0.082292 0.0169022 0.0666761 139 91 55 0.986277 -0.253683 0.244114
-0.0812121 0.0172356 0.0671433 132 82 51 0.813022 0.58267 0.00394512
-0.0730128 0.0184938 0.0662775 135 81 63 1.08037 -0.671888 0.188371
-0.0253158 0.0169386 0.0679998 208 157 148 -0.697125 2.64494 1.9345
-0.0219132 0.0149206 0.0657246 166 126 118 -0.109082 -1.0112 -0.144822
-0.0159225 0.0162381 0.0662252 184 131 129 0.424451 -0.901545 0.0873519
-0.0111278 0.0183109 0.0663474 174 115 100 -0.364395 -0.920743 0.141133
-0.00738269 0.0169989 0.0662968 172 114 98 0.306791 0.641423 0.705639
-0.00114981 0.0170047 0.0672037 161 99 71 -0.113816 -0.990155 -0.116946
0.00241775 0.0165518 0.0663558 151 90 61 -0.582306 -0.812762 0.0502774
0.00909836 0.0162814 0.065395 152 97 61 0.248504 -0.640473 -0.733017
0.0145852 0.0155393 0.0669235 162 95 64 0.685058 -0.604563 -0.450632
0.013912 0.0165508 0.0663228 207 135 123 0.955692 0.192185 0.236644
0.0296299 0.0177247 0.0655291 86 70 69 -0.376476 0.552671 0.743519
0.0302409 0.016401 0.0675049 88 68 59 0.615425 -0.53001 -0.583388
-0.0807858 0.022646 0.0658615 146 94 53 0.955833 -0.250637 -0.171353
-0.0719324 0.0219708 0.0681738 136 88 69 0.982077 -0.133145 -0.138984
-0.0125422 0.0225434 0.0655928 171 108 102 0.831958 0.557249 -0.0291946
-0.00708489 0.0195753 0.0639731 156 97 78 -0.0246311 0.565372 0.8402
-0.00146993 0.0210349 0.066288 157 98 73 0.817543 -0.577233 -0.0766128
0.00289823 0.0236621 0.0663669 149 91 62 -0.142463 -0.990107 0.0177374
0.00815943 0.0240158 0.0663019 130 72 35 -0.566546 -0.83507 -0.0663021
0.0110921 0.0219458 0.0664205 155 93 66 -0.649829 -0.748031 0.159372
0.0165318 0.0231135 0.0681448 96 50 9 0.132941 -3.65685 -1.63603
-0.0799265 0.0265536 0.0673419 156 116 80 0.968402 -0.250499 0.0261872
-0.0787318 0.0302979 0.0650882 130 83 54 0.528963 -0.74345 0.454635
-0.072606 0.0278297 0.0664073 135 85 59 0.970957 -0.0736629 0.241141
-0.011823 0.0280375 0.0698281 192 148 146 0.259699 -1.73622 -0.421266
-0.00798285 0.0286918 0.0677363 166 116 95 -1.48972 -0.410935 -3.76827
-0.0030668 0.0267766 0.0668041 157 104 75 0.0623016 -1.0186 0.610263
0.00191562 0.0250279 0.0661023 181 127 90 -0.155182 -0.976862 -0.149457
0.00770663 0.0246261 0.0666999 208 159 108 -0.271711 -0.96583 -0.0106084
-0.0787606 0.0316762 0.0695028 148 95 92 0.960008 -0.275357 0.0817428
-0.0774176 0.0329344 0.0664696 151 108 74 0.932517 -0.363298 -0.0221454
-0.0721072 0.0320518 0.0674448 146 99 69 0.951497 -0.276575 -0.205913
-0.0715098 0.0318221 0.0665787 156 108 70 0.99729 -0.0616671 0.0436611
-0.0761901 0.0367561 0.0675317 153 105 90 0.839893 -0.543629 0.000315388
-0.0704282 0.0371214 0.0660749 151 105 68 0.961436 0.357824 -0.00236621
-0.0703218 0.0382371 0.0699446 145 102 61 0.982473 -0.10373 -0.157161
-0.074289 0.0398498 0.067959 146 92 100 0.901193 -0.430212 0.062171
-0.0720031 0.0413361 0.0666766 142 91 92 0.576093 -0.780241 -0.2463
-0.0700673 0.0419813 0.0670357 160 118 81 0.961166 -0.132123 -0.249251
-0.0704567 0.0441065 0.0676357 147 93 97 0.649015 -0.756605 0.0892636
-0.0674272 0.0464558 0.0671326 165 117 84 0.481564 -0.876305 0.0286073
-0.0644922 0.0480037 0.0682742 160 114 79 0.838544 -0.582639 -0.100439
-0.0610757 0.0503215 0.0676701 82 40 29 0.814661 -0.574081 0.104515
-0.0652475 0.0479949 0.0657333 148 100 79 0.612545 -0.767912 -0.189672
-0.0610126 0.0505987 0.0661862 169 124 90 0.715317 -0.678626 -0.167694
-0.0598851 0.0544401 0.0659809 145 107 80 0.848433 -0.507309 0.189557
-0.0599268 0.0561432 0.0656279 161 111 98 0.741577 -0.541012 -0.401534
-0.0584725 0.058924 0.0665405 168 111 106 0.631475 -0.781605 -0.0201909
-0.0542835 0.0606904 0.0662767 127 76 70 0.376286 -0.923052 -0.0834983
-0.0499565 0.0600229 0.0660795 56 28 33 0.46988 -0.881384 0.10578
-0.0550379 0.0604231 0.0656851 162 110 109 0.744066 -0.662054 -0.106991
-0.051562 0.0628742 0.0681199 147 84 85 0.909981 -0.339589 -0.241336
-0.0487 0.0622406 0.0665405 122 63 47 0.214812 -0.964848 -0.16929
-0.0420405 0.0651904 0.067091 104 59 53 0.161125 -0.963189 0.220726
-0.0372439 0.0646667 0.0652913 72 21 9 0.137456 -0.988412 0.0649898
-0.0334329 0.0646068 0.066288 58 29 37 0.184641 -1.003 0.0309112
-0.0515588 0.0646807 0.0661589 172 118 119 0.603557 -0.781494 -0.172246
-0.0480411 0.0677593 0.0665773 153 96 93 0.573446 -0.827587 -0.0995029
-0.043152 0.0672994 0.0661383 125 57 58 0.785809 0.504449 -0.365137
-0.03767 0.066569 0.0672187 90 38 14 -0.30683 -0.952988 0.00794821
-0.0322893 0.0663638 0.0652633 66 25 11 0.733856 -0.57698 0.359046
-0.0298267 0.0684064 0.0649897 50 27 30 0.704513 -0.49865 0.533444
-0.0453049 0.0692325 0.0664641 136 79 70 0.463873 -0.880662 -0.117245
-0.0411727 0.0713855 0.0659413 148 90 86 0.458556 -0.846881 -0.280487
-0.0380535 0.0716233 0.0686195 135 91 72 -0.562369 0.176213 0.808149
-0.0335743 0.0712354 0.0657924 87 36 25 0.675846 0.440552 0.598515
-0.0284506 0.0721492 0.0640412 75 24 28 0.146617 -0.0411831 0.992789
-0.0261196 0.0738589 0.06498 59 35 24 0.963967 -0.390543 -0.0390918
-0.0349061 0.0737154 0.0662316 129 69 55 0.557812 -0.827155 -0.0811698
-0.0318761 0.0778475 0.0658928 120 59 46 -0.37756 0.94807 0.581372
-0.0267088 0.0789394 0.0644464 101 38 20 -0.207697 -0.240125 0.951638
-0.0220112 0.0790515 0.0673384 109 58 39 0.618603 0.619849 -0.485293
-0.017194 0.077314 0.067605 75 35 7 0.0812702 -0.986871 0.17118
-0.0135604 0.0768772 0.0658434 78 40 7 0.1026 -0.910993 0.432113
-0.0084767 0.0769852 0.0654319 77 46 35 0.138966 -0.787649 0.605195
0.00334282 0.0793057 0.0655876 56 12 0 -0.369348 -0.92664 0.078408
0.00840076 0.0775305 0.0660576 52 16 9 -0.36134 -0.932616 -0.00480017
-0.0274241 0.0796852 0.0665837 111 37 32 0.458492 -0.756353 -2.69054
-0.0224432 0.0794056 0.0669626 98 36 30 -0.00606887 -1.0117 0.121011
-0.0109136 0.0807372 0.0664247 80 26 8 0.237501 -0.995235 -0.140612
-0.00711017 0.0808513 0.0679739 72 22 10 0.0240599 -0.996451 0.170262
-0.00340097 0.0820126 0.0649829 52 7 0 -0.0305185 -1.18176 0.148115
0.00202465 0.0809826 0.0694796 61 16 0 -0.309802 -0.951072 0.00104959
-0.0457514 -0.0804375 0.0732778 155 67 81 -1.53164 -3.82089 -15.8867
-0.0426618 -0.0821983 0.0736305 152 60 70 -0.321716 -0.944125 0.145208
-0.0383502 -0.08195 0.0712399 143 54 62 0.433431 -0.938161 0.00567142
-0.0490954 -0.0774277 0.0733151 171 106 105 0.699529 0.60915 -0.375698
-0.0377133 -0.0752991 0.0699955 121 43 43 -0.536061 -0.767496 0.366893
-0.034916 -0.0767907 0.071957 143 59 65 1.03606 0.449488 -0.000580861
-0.0569037 -0.0724059 0.0706003 152 87 75 -0.53224 -0.851566 -0.0368701
-0.0521747 -0.075963 0.0716547 179 117 120 -0.071247 -0.911226 -0.406659
-0.0483877 -0.0715263 0.0720249 146 75 82 0.701771 -0.542716 -0.463041
-0.0427832 -0.0722433 0.0711515 138 58 75 -0.428367 -0.8927 0.156506
-0.0372497 -0.0737356 0.0730408 121 45 46 -0.405312 -0.896634 0.242568
-0.0587292 -0.0666777 0.0685129 180 127 118 0.833282 0.277062 -0.487781
-0.0550371 -0.0652979 0.0711251 150 93 93 0.777324 -0.00068103 -0.629107
-0.0518697 -0.0674963 0.072218 138 66 68 0.74666 0.677204 0.0901935
-0.0476451 -0.0696961 0.072042 130 56 57 -0.584902 -0.791004 0.181824
-0.0447044 -0.0704172 0.075133 122 47 44 -0.449593 -0.826047 0.34461
-0.0663945 -0.0588495 0.0711198 166 114 104 -0.614388 -0.778036 -0.152064
-0.0606674 -0.0602082 0.0710898 158 103 103 -0.379708 -0.862305 0.337927
-0.0561923 -0.061436 0.0727708 145 77 80 -0.350556 -0.8495 0.395976
-0.0544028 -0.0620198 0.0725145 135 58 62 0.663072 0.326041 -0.706923
-0.0671303 -0.0566631 0.0719585 159 107 67 0.809057 -0.0994232 -0.672561
-0.0632417 -0.0589943 0.0731396 143 85 83 -0.440288 -0.693616 0.571319
-0.0589207 -0.0613028 0.0739631 139 69 81 -0.28042 -0.827372 0.486724
-0.0538357 -0.061797 0.0747695 139 65 63 -0.680284 -0.713805 0.170596
-0.0661794 -0.0515864 0.0718817 152 99 99 0.996327 0.0701959 -0.0949024
-0.0651453 -0.0530286 0.0725861 146 80 76 0.946673 0.31642 -0.0652846
-0.0694432 -0.0458428 0.0721624 154 97 106 0.851999 0.345952 -0.400449
-0.0680875 -0.0477542 0.0714288 155 95 90 -0.432169 -0.806311 0.408791
-0.0657157 -0.0499471 0.0720846 154 96 92 0.817803 0.572456 0.0716028
-0.0761 -0.0393511 0.0748905 156 99 90 0.843705 -0.613691 -0.478768
-0.0713863 -0.0407538 0.072248 147 91 89 0.89323 0.443371 -0.0758608
-0.0692271 -0.0468484 0.0717211 152 94 96 0.733443 0.671729 -0.140644
-0.0731987 -0.0359581 0.0721375 142 92 70 0.970803 0.189796 -0.152949
-0.0728821 -0.0371368 0.0716254 164 112 117 1.00027 0.105143 -0.105897
-0.0716819 -0.0360058 0.0708483 136 99 58 0.913257 -0.323036 0.270981
-0.0109103 -0.0378477 0.074978 211 202 196 1.44658 -0.535318 1.28281
-0.00765826 -0.035184 0.0731757 199 188 180 -0.264455 -0.958546 -0.107552
-0.0026739 -0.0344339 0.0737736 129 115 107 0.281293 -0.936717 0.237738
0.000824048 -0.0351079 0.0718642 149 140 130 0.23215 -0.95627 0.199754
-0.0752188 -0.0320155 0.071754 160 106 108 0.882042 0.473884 -0.0341889
-0.0743115 -0.0342631 0.0734605 145 90 78 0.652248 0.720047 -0.253246
-0.0713662 -0.0319446 0.0725542 137 106 74 0.9325 -0.365026 0.0531065
-0.0148516 -0.0326291 0.070341 160 150 151 0.246692 -6.48682 -1.20378
-0.0108172 -0.0321566 0.0715322 141 118 113 0.780813 0.623734 -0.0366085
-0.00894615 -0.0312409 0.0722743 133 90 82 0.942173 -0.049649 -0.337574
-0.00215348 -0.0322047 0.0734919 130 89 74 0.312186 -0.102341 0.945414
0.0028399 -0.0320602 0.0711215 129 96 82 0.69289 -0.719211 -0.0570764
0.00612753 -0.0309929 0.072104 123 80 76 0.737091 -0.655328 -0.177982
0.0173653 -0.0291118 0.0707265 109 101 103 -0.11371 -0.958638 0.261926
-0.076778 -0.0266797 0.0717142 152 97 96 0.947327 0.329954 0.015318
-0.0701363 -0.0254141 0.070185 104 80 59 0.854766 0.354604 -0.386013
-0.0212893 -0.0243765 0.0726882 160 137 137 -0.111237 -0.994327 0.0200208
-0.0166556 -0.0255464 0.0730656 148 98 94 -0.4435 -0.830018 -0.339462
-0.0119908 -0.0273876 0.0733104 150 88 83 0.642959 0.693433 0.331117
-0.00696433 -0.0259931 0.0737138 152 87 77 0.105706 0.689148 0.7242
-0.000651821 -0.0248819 0.0737643 143 80 73 -0.653547 -0.582586 -0.514348
0.00115839 -0.0260887 0.0730848 129 70 63 0.0253579 -0.999725 -0.0277782
0.0068955 -0.0283084 0.0725127 138 65 64 -0.32936 -0.944147 0.0970265
0.01319 -0.0277269 0.0713757 140 55 59 -0.32394 -0.810148 -0.495357
0.0183249 -0.0278492 0.0719336 120 51 52 0.26339 -0.945744 0.22432
0.0196965 -0.0263414 0.0745826 103 48 49 0.837565 -0.52706 -0.162215
-0.0800311 -0.0214288 0.0721254 148 96 93 0.914641 0.399 -0.158673
-0.0790643 -0.021529 0.0706713 155 107 99 0.71304 -0.548618 0.465927
-0.0730742 -0.0218091 0.0715755 141 107 76 1.03955 0.122997 -0.246434
-0.0694222 -0.0240501 0.0746516 92 69 78 0.788667 0.616615 0.0956162
-0.02301 -0.0219942 0.0725879 167 147 141 0.998394 0.0625891 -0.0696053
-0.0216564 -0.0219686 0.0720478 153 107 97 0.903117 -0.0930738 0.419768
-0.0168392 -0.0225966 0.0720808 166 102 97 -0.031491 0.109709 0.994451
-0.0139735 -0.0251343 0.0739215 157 96 92 0.131581 -0.906395 -0.402012
-0.00638172 -0.0220643 0.0703061 178 117 118 -0.43171 -0.616741 -0.677161
-0.000599969 -0.0238579 0.0730152 168 98 98 0.759116 -0.635097 -0.146635
0.00142601 -0.0245464 0.0728387 163 85 98 0.770867 0.527603 -0.368101
0.00769463 -0.0230288 0.0722241 155 83 76 0.257791 -0.919507 0.323304
0.012217 -0.0209417 0.0706956 160 87 76 -0.49935 -0.432967 0.753999
0.0178685 -0.023024 0.072048 135 63 58 -0.281962 0.626161 0.727551
0.0201416 -0.0224912 0.0710351 113 52 34 0.950175 -0.159609 -0.269862
-0.081632 -0.0167591 0.0721625 153 99 102 0.986562 0.137515 -0.17381
-0.0797982 -0.0170764 0.0723904 163 110 114 0.59647 -0.543586 -0.705824
-0.0750649 -0.0181766 0.0713368 125 87 66 0.80537 0.253914 0.571636
-0.0246927 -0.0132816 0.0724415 160 120 109 -0.627975 -0.783003 -0.0147705
-0.0217542 -0.0175364 0.073906 161 108 96 -0.0365525 0.376597 0.926463
-0.0200645 -0.0169532 0.0729133 169 110 106 0.980373 -0.110142 0.163845
-0.0116614 -0.018218 0.0709105 170 113 96 -0.0127348 -0.95606 -0.308189
-0.00771379 -0.0178392 0.0722055 172 108 107 -0.363372 -0.886787 0.317746
-0.0028591 -0.02063 0.0727778 165 95 97 -0.066667 -0.987675 0.151343
0.00159039 -0.0216313 0.0713663 152 83 77 -0.326819 -0.931966 -0.213658
0.0133973 -0.0200129 0.0721526 156 80 72 -0.00399534 -0.919533 -0.393114
0.0176848 -0.0184898 0.0736281 140 66 66 0.963301 -0.108276 -0.24812
0.0222458 -0.0169833 0.0716279 138 62 60 0.773909 -0.61634 0.148917
0.0241636 -0.0149819 0.0711911 132 61 52 0.694575 -0.730079 0.16588
0.0301032 -0.0139414 0.072953 160 127 121 0.642458 -0.744403 -0.187701
-0.0765365 -0.0122283 0.0707924 146 111 78 0.955859 -0.205978 -0.277776
-0.0286308 -0.010671 0.0726813 181 165 158 0.909342 0.443622 0.177388
-0.0263427 -0.0123145 0.0714977 163 120 118 -0.465201 -0.715614 -0.52124
-0.024096 -0.0116991 0.0729009 167 121 113 0.940154 0.162056 0.309454
-0.017157 -0.0123541 0.0720374 172 121 116 0.824454 0.097166 -0.564778
-0.013748 -0.0157131 0.070273 178 122 111 -0.382322 -0.927254 -0.0189332
0.014618 -0.0125394 0.0709864 150 69 63 0.770974 0.158306 -0.700231
0.0175906 -0.0106799 0.0727702 159 84 76 -0.205379 -0.9753 -0.0881228
0.0204753 -0.0138462 0.0738234 148 68 63 0.734718 0.653142 -0.197457
0.0287378 -0.0137234 0.0708567 149 73 59 0.693238 -0.722036 -0.0656054
0.030217 -0.0126879 0.074156 150 78 66 0.977285 -0.437458 0.00105204
-0.0858676 -0.00695653 0.0731282 128 79 45 1.06738 -3.52692 0.223862
-0.0828711 -0.00558308 0.0729578 160 113 96 -0.383491 -0.925067 -0.104158
-0.0786947 -0.00614857 0.0720176 150 93 103 0.439779 -0.721952 0.545963
-0.028787 -0.00800828 0.0716917 163 151 136 0.970785 0.157265 0.188131
-0.0274685 -0.00755304 0.0711068 153 118 110 0.657698 0.227792 0.720088
-0.0219569 -0.00652882 0.0728741 165 115 105 0.940112 0.274933 -0.206617
-0.020514 -0.00887452 0.0737351 164 110 105 0.820362 0.575423 -0.119851
0.0140803 -0.00797091 0.0738614 161 77 69 0.905167 0.417861 -0.140642
0.0188704 -0.00793584 0.0721967 175 97 86 0.885556 -0.183338 -0.435306
0.0210428 -0.00632145 0.0727098 159 75 65 0.746661 -0.641126 0.213826
0.0286552 -0.00682483 0.0721552 136 66 49 0.874183 0.479572 -0.0869305
0.0303113 -0.007719 0.0714682 142 71 56 1.00164 0.0832414 0.0612608
-0.0853303 -0.00190034 0.0736531 145 96 55 0.995678 0.0818645 0.0447452
-0.0837658 -0.00239522 0.0728795 158 106 96 0.924169 0.38192 -0.0408463
-0.0772141 -0.00315959 0.0707726 129 88 81 0.834067 -0.556318 0.0396971
-0.0758762 -0.00174262 0.072714 79 52 57 0.985104 -0.0888907 0.152418
-0.0297277 -0.00162106 0.072413 184 171 165 1.00384 -0.173947 0.0676262
-0.0291803 -0.00288063 0.0716697 189 149 120 0.952404 -0.281136 -0.145439
-0.0242842 -0.00274469 0.0743486 146 96 35 0.903401 0.243847 -0.359815
0.0169286 -0.00354825 0.0730954 167 84 78 0.974986 -0.184636 0.136418
0.0189298 -0.00352655 0.0729991 171 96 81 -0.513289 -0.736351 -0.443184
0.0243017 -0.00350187 0.0719301 165 80 69 0.740731 -0.649687 -0.173073
0.0262693 -0.00252311 0.073688 166 80 78 0.816199 -0.0806201 -0.575231
-0.0849435 0.00316882 0.0726639 150 103 62 1.00673 0.0867805 0.0140454
-0.084053 0.00266768 0.0718322 152 97 81 0.981946 -0.179911 0.0646382
-0.0775245 0.00199121 0.0711533 141 95 91 0.744379 0.405039 0.533104
-0.0246446 0.000759316 0.0710097 178 126 114 0.862846 -0.523086 0.0567081
-0.0243009 0.00282078 0.0704912 145 87 56 0.903884 0.139625 0.448715
0.0174087 0.00186648 0.0734991 184 105 97 0.766185 0.0685837 0.670781
0.0247844 0.00141473 0.0712045 167 82 70 0.752338 -0.533924 -0.388066
0.0279475 0.00400923 0.0727509 144 87 71 0.999506 -0.0373118 -0.0147441
0.0299459 0.00244957 0.0719893 82 39 34 0.982645 0.196267 0.0092424
-0.0843512 0.0076501 0.0726406 155 113 69 0.986055 -0.264214 0.0342337
-0.0820751 0.00938061 0.0732717 157 113 99 0.829594 -0.453861 0.325464
-0.0803375 0.00773348 0.0710778 161 111 107 0.918252 0.318673 -0.240451
-0.0249438 0.00555685 0.0719061 174 109 114 0.993718 -0.161213 0.185442
-0.0238143 0.00744333 0.0726231 169 96 104 0.785046 -0.593069 0.199298
0.0158925 0.00927576 0.0712758 189 119 106 0.901205 0.416279 -0.130673
0.0158578 0.00630685 0.0729901 175 96 87 0.989331 0.15691 0.0195462
0.0243534 0.00861876 0.076314 144 101 49 0.178627 0.218274 1.03913
0.0273862 0.00689069 0.0740779 156 97 71 0.942714 0.329809 -0.0577614
-0.0835265 0.0128719 0.0735227 163 128 90 0.970007 -0.231348 -0.123237
-0.0822782 0.0125285 0.0722664 139 84 48 0.958288 0.265408 0.109235
-0.0798711 0.0150525 0.0709913 150 98 75 0.876434 -0.46412 0.130885
-0.0221285 0.012474 0.0726857 166 107 112 0.816815 -0.566986 0.114468
-0.0163301 0.014425 0.072423 175 111 113 0.0131085 -0.982509 -0.187122
-0.0121048 0.0150467 0.0715024 171 111 96 -0.13433 -0.987303 -0.0919906
-0.00972315 0.0151127 0.0713492 153 96 80 -0.0311163 -0.960631 -0.304279
0.00541276 0.0157536 0.0724222 143 85 32 -0.494571 -0.873898 -0.031422
0.00895813 0.015381 0.0715433 206 162 114 -0.0694942 -0.999426 0.037777
0.0143554 0.0130896 0.0713644 186 107 100 0.974883 0.22213 -0.0424262
0.0162867 0.0114726 0.0722896 160 90 63 0.648525 0.729725 -0.233694
0.0236197 0.0119468 0.0714018 159 96 63 -0.253303 -0.966467 0.0646781
0.0254514 0.0108726 0.0732026 167 92 80 0.671104 0.81776 0.220425
0.0278666 0.00948228 0.0738041 100 67 43 0.841051 0.62553 0.0714366
-0.0835226 0.0164866 0.0742689 160 123 89 0.976549 -0.240759 -0.00406779
-0.0811577 0.018678 0.0712262 142 93 55 0.957847 -0.162262 0.245171
-0.0791111 0.0170862 0.0723632 129 74 48 0.923123 -0.0294828 0.388924
-0.0720834 0.0177769 0.0707159 117 71 44 0.915956 -0.485967 0.183964
-0.0709338 0.0186701 0.0734654 108 73 59 1.06956 0.380488 -0.269435
-0.0231672 0.016186 0.072346 171 132 123 -0.931665 -0.560995 -0.338385
-0.0164903 0.0152607 0.0719943 198 145 138 0.602629 -0.802073 0.00630291
-0.0115341 0.0171308 0.0726518 185 127 127 0.21045 -0.942888 -0.260851
-0.00847451 0.0172342 0.0716342 177 125 125 0.811995 -0.501162 -0.30515
-0.000632415 0.0193648 0.0725952 183 128 103 -0.5457 -0.812572 -0.212802
0.00325177 0.0172367 0.0718552 184 129 107 -0.369735 -0.923139 0.120003
0.00810493 0.0179602 0.073052 172 121 101 0.891592 -0.289477 0.351066
0.013628 0.0148389 0.0724652 168 97 69 0.215786 -0.990641 0.0724977
0.0156239 0.0155395 0.0727893 103 50 13 0.843015 -0.567173 0.0767071
-0.0806173 0.0213342 0.0721883 159 118 73 0.981348 -0.190855 0.0357078
-0.0814947 0.0225502 0.0725914 151 98 64 1.00008 0.0283456 -0.0530478
-0.0706888 0.0239745 0.0703313 136 82 58 0.958281 -0.0834724 -0.283575
-0.0694879 0.0244179 0.074114 91 44 41 0.998292 0.0334905 -0.0683341
-0.012879 0.0209719 0.0706369 227 180 179 0.963792 -0.211838 0.184279
-0.0121841 0.021716 0.0723541 220 174 181 0.905803 -0.294128 -0.309508
-0.00640725 0.0219725 0.0761836 161 101 126 -0.0504528 -0.0308494 0.998454
-0.00163013 0.0225238 0.073412 169 117 101 0.937183 -0.260069 0.247673
0.00114546 0.0247507 0.0723598 151 98 91 0.569221 -0.745794 0.350472
0.00807381 0.0233821 0.0715733 181 137 109 -0.5479 -0.845535 -0.120173
0.0159176 0.0222206 0.0740983 138 73 38 0.528754 -0.950634 -0.334916
-0.0795362 0.0269945 0.0728505 161 118 84 0.972241 -0.187969 -0.140684
-0.0779474 0.0292193 0.0716276 149 100 71 0.0791117 -0.879349 -0.470369
-0.0717928 0.0282786 0.0736277 156 106 79 0.951814 -0.0617601 -0.323092
-0.070705 0.0281688 0.0723529 117 80 59 0.985186 0.128344 -0.15248
-0.0132512 0.0275426 0.0728673 202 158 155 0.407013 -0.817055 2.24949
-0.00852814 0.027363 0.0731646 192 145 114 0.231571 -0.702018 -0.691455
-0.00254194 0.024673 0.0702549 181 126 83 -0.0794063 -0.972007 -0.230598
0.00293438 0.0248894 0.0712321 198 152 109 -0.0838265 -1.00348 -0.0236163
0.00813728 0.0248678 0.0718281 235 185 156 -0.835865 -0.841157 -0.0780192
-0.0793019 0.0310241 0.0727602 171 138 88 0.899496 -0.435171 -0.0680855
-0.077301 0.0329495 0.0722204 145 94 75 0.926621 -0.373261 0.0636407
-0.0716395 0.0318641 0.0717253 140 104 62 0.855542 -0.501418 -0.138533
-0.0710633 0.0340847 0.0725465 136 96 68 0.991184 -0.10397 -0.0866829
-0.0756911 0.0380899 0.0732818 157 102 101 0.951941 -0.311839 -0.0136894
-0.0726876 0.0375934 0.0714262 144 99 87 -0.657753 -0.755088 0.0297183
-0.0698237 0.0394488 0.0721748 161 122 77 0.859211 -0.508222 -0.0599835
-0.0751989 0.0399713 0.0724927 140 77 75 0.874027 -0.49012 0.0114535
-0.0716403 0.0409226 0.0727404 143 77 88 0.67014 -0.713628 0.211423
-0.067633 0.0444292 0.0726968 175 131 98 0.738479 -0.617099 -0.274052
-0.0652183 0.0444103 0.0732842 121 88 56 0.864235 -0.502127 -0.058949
-0.0689375 0.045441 0.073109 132 64 76 0.599846 -0.802976 0.115396
-0.0663923 0.0472923 0.0720256 167 120 103 0.190709 -0.983582 -0.00494669
-0.0637761 0.0492624 0.0710575 173 128 87 0.842252 -0.527773 0.167082
-0.0643067 0.0499579 0.0728086 127 67 74 0.708703 -0.675983 0.207256
-0.0615715 0.0523446 0.0720261 173 122 113 0.77297 -0.580368 0.304544
-0.0606004 0.0538661 0.0714967 156 106 89 0.940965 -0.327114 0.0963917
-0.0595693 0.0554042 0.0710598 167 108 107 0.755448 -0.655347 0.0418625
-0.0578037 0.0574001 0.072097 187 127 129 0.68563 -0.721458 0.0973955
-0.0540652 0.0600284 0.0707496 128 75 72 0.487316 -0.840767 0.236671
-0.0494065 0.06056 0.0698124 80 56 51 0.219169 -0.901068 0.390956
-0.0551428 0.0595482 0.0720707 159 92 98 0.73477 -0.677289 0.0567041
-0.0518532 0.0616352 0.0718159 143 77 82 0.848348 -0.547595 -0.0297895
-0.0478611 0.0625621 0.071326 120 67 52 -0.0744524 -0.789557 0.61218
-0.0451527 0.0650012 0.0715111 109 66 63 0.563212 -0.823699 -0.101485
-0.0332497 0.0645549 0.0708036 82 52 44 0.110669 -1.0269 0.0111447
-0.0497737 0.0651363 0.0724469 152 85 89 0.723194 -0.685078 0.100763
-0.0464266 0.0684651 0.071835 154 94 97 0.724439 -0.589194 0.391602
